# .PCD v0.7 - Point Cloud Data file format
VERSION 0.7
FIELDS x y z rgb
SIZE 4 4 4 4
TYPE F F F U
COUNT 1 1 1 1
WIDTH 1254
HEIGHT 1
VIEWPOINT 0 0 0 1 0 0 0
POINTS 1254
DATA ascii
-0.33290401 1.6610694 6.4382148 3353366
0.31357259 -0.15888786 4.9829569 4406816
-0.46707442 1.2349508 6.2813196 4734498
-0.21519223 -0.33290386 5.2116375 4143391
0.41069162 0.46857524 5.2912841 4208927
-0.092010677 1.9169146 6.446012 2959124
-0.55332762 0.62541032 5.9817982 4866083
0.36401731 0.67917573 5.447155 4472353
0.47282046 1.3971024 5.7883568 4998438
-0.34453303 0.18786049 5.5962515 5458728
-0.35508692 0.19614768 5.6076541 5393449
-0.28672713 3.3557053 7.4115276 65793
-0.55369288 0.33485198 5.8105001 5261097
0.30537778 -0.17969513 4.9776225 4209440
-0.13282722 1.8919376 6.4554052 2958610
0.48550117 0.11553133 5.0367479 4538661
-0.35294104 1.6233083 6.4305835 3682073
0.366822 0.65499741 5.4304132 4735525
0.39108717 0.97841519 5.5952082 5261353
-0.14479631 1.885545 6.4571347 2892818
-0.1648277 1.8714361 6.4577389 2827282
-0.13921043 1.851371 6.4478173 3419415
-0.38154477 3.3157346 7.4444962 65793
-0.47497779 1.1862392 6.2603483 4931877
-0.40053323 3.3072619 7.4419265 131586
-0.16598204 1.8537852 6.4540324 3090197
0.44539762 1.656496 5.9694791 4340770
0.4752025 0.049632072 5.0034456 4275233
0.27315438 -0.24363399 4.9619594 4933415
0.46481961 0.019436717 4.9930725 4603940
0.25565952 2.0020604 6.2746105 3156246
-0.48802379 1.1306773 6.2329226 4405791
-0.35958278 1.5872116 6.4199357 3813658
-0.53773618 0.82684678 6.0843873 4866082
-0.3331992 0.17703032 5.5844522 5261608
0.45907104 1.3052349 5.7388077 4866854
-0.25229394 1.7794716 6.4569011 3221780
0.44979781 1.2614857 5.7185054 5327401
-0.44186321 3.2889063 7.4466677 65793
-0.38042805 1.5133255 6.3958397 3945243
0.33039254 1.9646394 6.201437 3551001
0.45249802 0.36363673 5.2013264 4341024
-0.388706 1.4894856 6.3849444 3682330
-0.37691543 0.20517421 5.6268616 6051377
-0.80079162 3.1558661 7.6069002 131586
0.45207477 1.5848542 5.924243 4801061
0.33247304 1.9434292 6.1958642 3682586
0.46769971 1.5807952 5.8958907 4472096
-0.80854285 3.1542335 7.6084309 131586
0.36362684 1.9293976 6.1667943 3682586
-0.82273602 3.149766 7.616982 65793
-0.43305838 0.20731902 5.656425 5722415
-0.84449732 3.1428277 7.6281009 65793
0.35348481 1.9377539 6.1778946 3353623
-0.8708601 3.1258969 7.6331534 0
0.44410157 1.7693117 6.0208378 4472097
0.075866103 2.0078719 6.3914886 2630161
-0.1653749 3.4157383 7.3620152 65793
-0.14205599 3.411869 7.3452368 65793
-0.30293119 3.3528366 7.4122581 65793
-0.31526947 3.3520312 7.4242949 65793
-0.32776645 3.3498025 7.4274368 65793
-0.34025148 3.3433774 7.4307966 65793
-0.48660809 3.2629013 7.472662 65793
0.055202961 1.9987829 6.3998899 2630161
0.42842501 -0.023266912 4.9962234 4472868
-0.2432192 1.7527039 6.4489222 3287831
-0.5140202 0.79062998 6.0612397 4866082
0.4187063 1.1897947 5.711349 4801061
0.40140474 -0.050111413 4.999331 4801575
0.46641099 0.2656455 5.1431336 4341282
0.21468353 -0.32046008 4.957058 4867623
0.48124778 0.23268425 5.1127896 4078112
-0.48274171 1.0909833 6.2099166 4997668
-0.26835632 -0.17382598 5.3449974 4472355
-0.543006 0.58129591 5.9556289 4932132
-0.27790993 -0.15680575 5.360188 5196074
-0.26232696 1.721889 6.4452686 3616537
-0.55073333 0.55156994 5.9415522 4931875
0.36332268 0.79433072 5.5107107 4274719
-0.49091774 0.25806963 5.7374263 5064233
-0.53278863 0.72865802 6.0349078 4602911
0.18180799 -0.35208499 4.9591265 5131049
-0.0030279756 -0.42764664 5.0343838 4867366
-0.014177769 1.9747225 6.4291816 2827283
-0.2209616 -0.26288891 5.2652545 4406561
0.36013889 0.75059205 5.4871001 4472612
-0.44545183 1.2926837 6.3079791 4668705
-0.45877507 1.3120859 6.3198476 4471070
-0.5513007 0.72360694 6.0348597 4734240
-0.54562604 0.51997125 5.9232159 4866340
-0.023447812 -0.44238806 5.0359488 4801572
0.16722059 -0.3735373 4.9530206 4736036
0.38847762 0.51281983 5.3362279 4077855
-0.01935783 -0.47050798 5.010314 4736037
0.43996483 1.7094588 5.998908 4866855
-0.48436537 1.0065482 6.1662059 4931877
0.44484127 1.6882885 5.9838686 4669477
-0.54545355 0.64972216 5.9935331 4734498
-0.29215622 -0.20238066 5.332478 4472098
-0.29874444 -0.044095874 5.438292 4801062
0.29341871 -0.20665026 4.9680805 4736293
0.41477996 0.44688201 5.2784948 4143391
0.48714268 0.16517806 5.065268 4406817
-0.036654502 -0.46764946 5.0232081 4670243
-0.33532 1.615653 6.4269223 3945244
-0.31728274 0.17222285 5.579195 4274719
0.13867116 -0.38317347 4.9681587 4473123
0.36565274 0.5960483 5.3983688 4537891
-0.48794582 0.91337121 6.1189332 3945501
-0.12818179 1.8829205 6.4523673 2958867
-0.16648179 -0.36428905 5.1674709 4274719
-0.23634353 -0.27622485 5.2629633 4274720
0.471735 0.090490818 5.0355544 4078111
0.11654633 -0.3975606 4.971715 4736037
-0.10029402 -0.43896329 5.0797606 4735779
-0.36470324 1.5538198 6.4102459 4076829
0.23953444 -0.29414725 4.9528098 4670501
0.3763209 0.91436529 5.5687718 5064232
0.45003748 1.324614 5.7695441 4998439
-0.45052531 0.21009588 5.6686206 5590830
-0.45242393 1.1353601 6.2285142 4865826
-0.45265508 0.22113872 5.6857209 5985587
0.37033767 0.94239795 5.5950227 5327402
-0.5484066 0.85542917 6.1016197 4668961
-0.29060802 -0.11996627 5.3884792 4932903
0.465469 0.059917569 5.0243092 4209184
0.46451294 0.04572928 5.0156846 4274976
-0.53106833 0.84463251 6.0930629 5063461
-0.39114758 1.4497836 6.3707032 3945243
0.43758589 1.2637624 5.7412086 5327144
0.4512701 0.016768575 5.0089283 4143650
0.45374215 0.0031830072 4.9937472 4406819
-0.2105391 -0.29535019 5.2380714 3880479
-0.18640989 -0.32486033 5.206934 4275234
0.1115911 -0.37896502 4.9926281 4736293
0.057979167 -0.42928827 4.9897428 4604706
1.5866615 3.9516702 6.581708 65793
0.53005946 3.4404006 6.9459205 65793
1.5910467 3.961194 6.5933166 0
-0.73402727 3.2042761 7.5934553 65793
0.51531637 3.4492822 6.9552622 65793
0.046845198 3.4647813 7.258266 0
1.5868493 3.9372101 6.5731902 65793
-0.74608564 3.1961117 7.5962396 65793
-1.5735005 2.8975687 7.9383488 0
0.50630462 3.4595919 6.9688711 65793
-1.5838569 2.8934193 7.948009 0
1.4898483 3.921973 6.624774 0
0.49161869 3.4775729 6.9911838 65793
-0.77077055 3.1890707 7.6074162 65793
0.03096807 3.4640455 7.2677336 0
-1.5906719 2.9051323 7.9526386 0
1.4628259 4.0010614 6.6876206 0
0.0068266392 3.4676032 7.2848501 0
-0.78333604 3.1819863 7.6112242 65793
0.47644979 3.4843464 7.0018773 65793
-0.79283786 3.1708274 7.6091814 131586
-0.017883897 3.4597173 7.2956648 0
1.464653 3.9511905 6.6616368 0
-0.83243954 3.1478286 7.6219625 65793
0.45376885 3.4914217 7.0224104 65793
-0.027500033 3.4480517 7.3021526 65793
1.4497137 3.9528971 6.6614041 0
-0.042790264 3.4392207 7.2992668 65793
0.49912512 3.4690781 6.9788637 65793
1.4395417 3.9536433 6.6745529 65793
1.4818373 3.9339373 6.6361461 0
-0.067901045 3.4285734 7.3062997 65793
1.4773684 3.940866 6.6454687 0
-0.88156521 3.1149292 7.6334467 65793
-0.079330206 3.4208727 7.3113708 65793
-0.89286733 3.1027355 7.6337471 65793
-0.091655016 3.4151616 7.315731 65793
-0.90642178 3.0994148 7.6416016 65793
-0.10400093 3.4106846 7.3208218 65793
0.38618785 3.598753 7.1147652 0
0.38964903 3.6065459 7.1282868 0
-0.91956115 3.1062465 7.6520786 65793
1.4142017 3.9822321 6.7069759 0
-0.11637628 3.4079003 7.3269157 65793
1.427387 3.989435 6.7062497 0
0.37720692 3.6019588 7.1321421 65793
-0.12933823 3.4093542 7.3358297 0
-0.93121135 3.1122193 7.6628141 65793
1.4261905 3.9443355 6.6758461 0
0.37073433 3.5900135 7.1292286 65793
-0.17863762 3.4162951 7.3706045 65793
-0.19106066 3.4162869 7.3783436 65793
1.4019759 3.971626 6.7093077 0
-0.94518209 3.1237712 7.6782417 65793
0.4076218 3.5282183 7.0692701 0
-0.20341671 3.4123864 7.3837767 65793
-0.95639229 3.1336451 7.6936474 0
0.40303373 3.51882 7.0574446 65793
-0.21638936 3.399951 7.3847222 65793
1.4179561 3.9365966 6.6863742 0
0.42870915 3.508009 7.0488839 65793
-0.98257422 3.1298871 7.7012615 0
1.3922933 3.9446833 6.6980724 0
0.3979091 3.5845962 7.1091394 0
-0.97352695 3.1307163 7.7000046 0
1.4042765 3.9568479 6.7062244 0
0.39464277 3.561718 7.0950165 0
-0.99363291 3.1299129 7.7120123 65793
0.4023084 3.5440812 7.0833368 0
1.4150374 3.9338098 6.6782904 0
-1.0060862 3.13164 7.7207785 65793
0.36531627 3.5754936 7.1243739 0
1.3771569 3.9542658 6.709012 0
-0.49897563 3.2617073 7.4803543 65793
0.3570534 3.5617981 7.1213446 65793
-0.51168567 3.2629087 7.4907718 65793
0.35313797 3.5568957 7.1209335 65793
-1.0555223 3.0942872 7.728775 65793
-1.0587164 3.0819893 7.7247038 65793
-0.53336656 3.2593527 7.5004201 65793
1.5821205 3.91394 6.5625925 65793
1.5809308 3.9014564 6.5560732 65793
0.43397951 3.4980693 7.0327072 65793
1.5854188 3.890605 6.5469642 65793
0.41718882 3.5077653 7.0453639 65793
1.5660907 3.8940523 6.5652671 65793
-0.55107445 3.2534685 7.5080152 65793
-1.079982 3.0849445 7.739543 65793
1.5529374 3.8873856 6.5665832 0
0.33902907 3.5469537 7.1187158 65793
-0.57205421 3.2443058 7.5190516 65793
1.5844623 3.8781886 6.5403385 0
-0.58676553 3.2418528 7.5236492 65793
1.5774246 3.8659892 6.5368242 0
-1.1215389 3.1123929 7.7814202 65793
1.5650805 3.8668404 6.5453596 0
-0.60785735 3.2601542 7.5473156 65793
-1.0922114 3.0971832 7.7550902 65793
-0.61143345 3.2697554 7.5569572 65793
-0.62337959 3.2716069 7.563652 65793
0.28537226 3.5411706 7.1532884 65793
-1.1030574 3.105907 7.7662678 65793
-0.63572276 3.2669721 7.5686493 65793
1.5151535 3.8951988 6.5927243 0
0.26502544 3.5384073 7.160965 65793
0.25331777 3.532732 7.168848 65793
-0.59804475 3.2433143 7.5314054 65793
1.5303086 3.8866584 6.5785441 0
-0.60364497 3.2492232 7.538332 65793
1.5019655 3.8935082 6.5986118 0
1.4941118 3.900784 6.6097956 0
-0.64728463 3.2651186 7.5752249 65793
0.24192786 3.5221572 7.1700449 65793
-0.66398811 3.2680223 7.5868778 65793
0.22868234 3.5140736 7.1708908 65793
-0.67330056 3.2660792 7.5915809 65793
-1.0677168 3.0791936 7.7286859 65793
0.84311461 3.9599414 7.049963 65793
0.20484644 3.5183182 7.1906786 0
0.83078098 3.9547501 7.0546312 65793
-0.68712842 3.2637327 7.5938263 65793
0.81840861 3.9518013 7.0606279 0
0.21723723 3.5131245 7.1801805 65793
-0.69292212 3.2407906 7.6016464 65793
0.80600834 3.9504685 7.0675812 0
-1.473684 2.9019985 7.8786659 65793
0.79360223 3.9494686 7.0747328 0
-0.7083869 3.2386832 7.5974865 65793
-1.4638844 2.8926318 7.8666582 65793
0.78123021 3.9465051 7.0807199 0
0.19222581 3.5226727 7.2013235 65793
-1.4738439 2.880867 7.8664684 65793
-0.71531212 3.2292666 7.5963249 65793
0.1799438 3.5144763 7.2042112 65793
0.75815785 3.938061 7.0765882 0
-1.4825336 2.9115977 7.8897581 65793
0.16943729 3.5098846 7.2027121 65793
-0.72543555 3.2145419 7.5940714 65793
-1.486241 2.8793559 7.8733158 65793
0.75638044 3.9201035 7.0787201 0
-1.5002917 2.8806002 7.8827977 0
0.15537691 3.5034742 7.2133775 65793
0.75393903 3.9065723 7.0745039 0
0.75154722 3.893744 7.0685329 0
0.14303708 3.4993205 7.2186861 65793
0.11834258 3.4867005 7.2264519 65793
0.74509907 3.8798654 7.0644798 0
0.095144629 3.4727817 7.2367034 65793
0.7343303 3.8642781 7.0621266 0
0.72918212 3.8508902 7.0575476 0
0.7203263 3.8367324 7.0548325 0
0.70873415 3.8280635 7.0570154 0
0.69644165 3.8204813 7.0602674 0
0.69553244 3.8156788 7.0608902 0
0.6837194 3.805125 7.0592852 0
0.67220366 3.7846773 7.0536656 0
0.67268944 3.7485292 7.0359397 0
0.66774929 3.7297244 7.0253634 65793
0.66184187 3.7008998 7.0131545 0
0.64100873 3.6865687 7.0016699 0
0.64918005 3.670037 7.0035315 0
0.63719594 3.6544504 7.0006075 0
0.62205064 3.6444702 6.9960265 65793
0.62324119 3.6254663 6.9940643 65793
0.61361742 3.6111946 6.9917674 0
0.59958088 3.597476 6.9909315 0
0.58865893 3.5871329 6.9917231 0
0.58243763 3.5780172 6.9902992 0
0.57750463 3.5602734 6.9830275 0
0.57518685 3.5395083 6.9724197 0
0.57470059 3.5272269 6.96558 0
1.5807055 3.932673 6.5860443 65793
1.5201637 3.913723 6.6162696 0
1.4941447 3.9434862 6.6479435 0
1.4919608 3.9336371 6.6369481 0
1.5064058 3.9233594 6.6271605 0
1.506511 3.9113739 6.6198373 0
0.40546888 3.5838013 7.1127005 0
1.4555221 3.9914749 6.7034025 0
-1.1275254 3.1078205 7.7893257 65793
1.4176748 3.971859 6.7080526 0
-0.59474385 3.2475951 7.5413399 65793
1.4198105 3.9579782 6.7039881 0
1.4320056 3.949801 6.6905904 65793
1.4200389 3.9458785 6.6968632 0
-1.037464 3.0699668 7.7180595 65793
1.4050043 3.9448195 6.6982131 0
-1.0523951 3.0688114 7.7195759 65793
0.1329037 3.4945028 7.2284136 65793
1.5786365 3.9111683 6.567955 65793
1.568169 3.9120286 6.5805273 65793
-1.4707942 2.8867786 7.8768806 65793
1.578086 3.8994565 6.5593662 65793
1.5790464 3.886673 6.5534153 65793
1.5557314 3.9020255 6.5819359 0
1.5419782 3.8990235 6.5866027 0
1.5790812 3.8747535 6.5459795 0
1.5178062 3.904036 6.6049957 0
1.5050555 3.9008455 6.6100106 0
0.67243803 3.7730007 7.049561 0
0.67829025 3.7169135 7.0250692 0
0.50247729 0.21184134 5.0711079 4275488
0.46626443 1.6709014 5.9422374 4538147
0.38828456 0.8721987 5.5259199 4998438
-0.4671939 0.21329832 5.679935 5985330
0.3206712 -0.15814257 4.9699211 4933413
0.46762395 1.64212 5.9251494 4801061
-0.54737008 0.93662459 6.1401229 4800033
-0.57672977 0.69671637 6.0246768 4471584
0.46762347 1.6114331 5.9104757 4340513
0.31224954 -0.18833268 4.9573383 4473379
0.24273294 2.0235562 6.2873988 3024918
0.29228097 -0.256127 4.9293175 4670502
0.46929759 1.5545379 5.8786235 4735267
-0.31957841 -0.14510596 5.3797054 4735524
-0.53783661 0.26225686 5.7506518 5261353
-0.26859009 -0.31304133 5.2486563 4209185
-0.50425303 0.23154831 5.7163525 3945501
0.42367417 1.7921276 6.0552545 4800547
0.46925384 1.5383277 5.8710904 4603682
-0.044222653 1.9752425 6.4389882 2893076
0.47716767 1.5116787 5.8499107 4669475
-0.066642493 1.9682906 6.4431992 2958868
-0.25100714 -0.33223307 5.2265525 4011806
0.38567144 0.77987587 5.4696651 4801060
-0.080843687 1.9396369 6.4437976 3024660
-0.54587305 0.28683066 5.774425 5392939
0.37417346 0.7534216 5.4690738 4735525
-0.36432341 1.6163214 6.4287877 3748122
-0.10431951 1.9470766 6.4536428 2893075
-0.11805254 1.9287839 6.4557705 2958612
0.41573268 1.0695597 5.6234303 5458730
0.48447639 1.5033337 5.8335867 4998181
-0.3779487 1.5904498 6.4209514 3419159
-0.35298532 -0.0084530115 5.4759226 4406306
-0.38579401 1.5715783 6.416151 3682329
-0.24519457 -0.36576796 5.2025104 4275234
-0.31032231 -0.23966026 5.3141685 4274977
0.24864483 -0.31548893 4.9242353 4801829
-0.082358986 -0.47355926 5.0399756 4669730
0.41076654 1.8567724 6.0881505 3617051
-0.16750371 3.4189725 7.3559961 65793
-0.36280873 0.18327701 5.5971456 4866337
-0.48467258 1.2132727 6.2727966 4931619
0.16454309 2.0338652 6.3406734 2761491
0.44766098 1.7610871 6.0136356 4472098
-0.58711702 0.52620912 5.9338107 5128997
0.38099623 0.70543814 5.4362497 4932903
0.48290426 1.4409997 5.7970018 5129767
0.082953155 -0.46858549 4.9389997 4933415
-0.2097573 -0.41433728 5.1514759 4867109
-0.33988544 -0.084043264 5.42342 4866855
-0.1027374 -0.46279275 5.0594826 4998950
0.48266387 1.4044087 5.7764163 4998439
0.44344425 0.43989682 5.2430229 4011806
0.48020542 1.3881798 5.7692904 5195817
0.45784277 1.6977513 5.9661975 4669475
0.40667635 0.51969945 5.3178663 4077341
0.47763246 1.369249 5.756628 5590315
-0.42517251 1.4728476 6.3831329 4274207
0.46376783 1.7231375 5.9661031 4472099
-0.25754538 3.3603029 7.3765264 131586
0.067634642 -0.4925952 4.9330058 4736292
-0.4268834 0.20007992 5.6424656 6182962
0.051334083 -0.48515904 4.9506006 4670500
-0.50075471 1.1382549 6.2389622 4471584
-0.58439851 0.40123713 5.8561974 5195046
0.27457583 2.0001817 6.2598119 3353623
0.4649542 0.0059065819 4.9792843 4801574
-0.2744537 3.3569713 7.3868694 65793
-0.50051838 0.21787226 5.7012105 5130026
-0.49482188 1.1087189 6.2223711 4734754
-0.31424642 3.3519139 7.4020281 65793
-0.56505948 0.41210318 5.8616967 5129254
-0.43924505 1.4322863 6.3699317 3879708
0.36416483 1.9438789 6.1680112 3748122
0.39170861 0.90762669 5.5407348 5392937
-0.22010136 1.8158571 6.4573784 3484952
-0.33160138 3.3513627 7.4130526 65793
-0.43562281 1.4009895 6.3581538 4471585
0.34852564 1.9608731 6.1839242 3287830
0.45966876 0.39478397 5.2048597 4472353
-0.35667318 3.334065 7.4330325 65793
-0.2693221 1.7643648 6.4567561 3550487
-0.4135977 3.3026607 7.4416027 131586
-0.43070915 3.2902174 7.4477882 65793
-0.45010203 1.3755183 6.3461022 4339998
0.4121443 -0.052044868 4.9773731 5130539
0.31305903 1.9752384 6.2209568 3484952
0.433137 1.1927032 5.6893492 4932646
0.39455265 -0.060598135 4.9896145 5130282
-0.47062674 3.2750969 7.452055 65793
-0.85022819 3.1484308 7.6186748 65793
0.29491496 2.0059958 6.2425275 3222295
-0.85847473 3.1376939 7.6277504 65793
0.49232191 0.28092277 5.1179972 3815197
0.35303354 -0.10393977 4.9789386 5657392
0.34217173 -0.12219787 4.9687362 4867880
0.054335237 2.0218027 6.4021339 2367247
0.001532197 1.9975622 6.4234476 2761490
-0.55523336 0.3594141 5.8271141 4932133
0.41589731 1.1595631 5.6913958 5261352
-0.32206863 1.6862644 6.4415274 3419417
0.38612664 0.66567558 5.4047689 3814685
-0.47603977 1.3073634 6.3202271 4602913
0.38423157 0.6171422 5.385324 4341026
0.11900711 -0.41475272 4.9540424 4604707
-0.47515634 1.2922013 6.3111372 4471071
-0.28303826 -0.28281713 5.2759728 4274720
0.19745135 2.0205145 6.3175068 3024660
-0.033567756 1.9682169 6.4350371 2958868
-0.57780349 0.63442934 5.9903216 5195304
0.1462248 -0.39902949 4.9463367 4670500
-0.51621515 0.96726024 6.1500378 4668705
0.37384403 0.83773297 5.524766 4274720
0.42458087 1.1590056 5.6765738 5129767
0.38332748 1.9310175 6.1454153 3814171
-0.046311408 -0.4372946 5.0538673 4340768
-0.34693903 1.6576637 6.4392295 3155989
0.41857976 1.1161313 5.6552 5524523
-0.31840482 0.078562021 5.5195084 4800803
0.36992478 0.81777203 5.5164642 4406561
0.38788855 1.9195533 6.1378903 3353880
-0.51892418 0.90906578 6.1240668 4734755
-0.066219866 -0.48731029 5.0220175 4538658
0.096050262 -0.44253933 4.9488025 4538660
-0.30319703 -0.15157354 5.3715816 4866853
0.4914633 0.12963307 5.0384922 4604453
-0.34125978 0.061471224 5.5138788 4866853
0.40453863 0.53288382 5.3257246 4143391
-0.57134312 0.58262712 5.9607182 4931874
-0.54934096 0.89431882 6.1224527 4339997
0.12471038 2.0225265 6.3641376 2630160
0.44010359 1.7834165 6.0288854 4603426
-0.54603714 0.30522728 5.7894149 4998182
0.27723271 -0.26387131 4.9396338 4604452
0.48540843 0.085098863 5.0142307 4341282
-0.31110495 -0.18676698 5.3495479 4341026
0.4225089 0.46800029 5.2744322 4209184
0.41590154 1.8249555 6.0745173 4208927
0.24928969 -0.29621565 4.939939 4736292
-0.48564428 1.1689866 6.2538395 4800547
0.3671999 0.7421639 5.4722443 4472098
-0.17527527 -0.41702795 5.133821 4340766
0.069469512 -0.44499123 4.9664202 4999207
0.39876962 1.0266075 5.6174479 5195816
0.42911094 0.45039105 5.2611332 4143647
-0.50064939 1.1821611 6.2612891 5129254
-0.5742963 0.5372318 5.9377522 4734496
0.47984064 1.4840423 5.8297873 4998437
-0.3952103 1.5382912 6.4054484 4274463
-0.37107319 0.19302607 5.6095896 5327400
0.39346766 0.98951912 5.600162 5063974
-0.20399049 -0.35618222 5.1880212 3946015
0.44627643 0.3932904 5.222146 4603938
-0.57757723 0.49696004 5.9145617 5260581
-0.20679379 1.8394479 6.4608793 3221781
-0.2932449 -0.238114 5.3090196 4537890
0.39291465 1.9005628 6.1253858 3551001
0.38900298 0.95780617 5.5806231 4866852
-0.40538502 1.5118216 6.3957243 3813658
0.40476125 1.8851444 6.1065984 3814172
0.41023302 0.50058544 5.3046546 3880220
0.4785462 0.028185368 4.9786677 4669989
-0.057678312 -0.44687879 5.0520039 4538403
-0.56606007 0.44738448 5.8844738 4800290
-0.21248358 -0.38085699 5.1759768 3880222
-0.35173383 0.17766309 5.5894041 5392165
-0.32836163 -0.064386725 5.4329653 5064488
-0.58230752 0.43323314 5.8778834 4603169
0.37741071 0.88841802 5.5512462 5327144
0.37512994 0.63395661 5.4055524 4209699
-0.2283996 -0.31249785 5.2332315 4209185
-0.34675652 0.14713657 5.5671144 4866081
0.47236711 0.34421718 5.166533 4341024
-0.13811406 -0.44789469 5.092 4801828
0.4533208 -0.0064531565 4.9826541 4669989
0.47888082 0.30585814 5.1445045 4077854
-0.55956012 0.74471462 6.0463848 4077083
-0.57015115 0.37296319 5.8377047 4734755
0.21269071 -0.34925437 4.9314108 4473123
0.43216431 -0.040877581 4.9683251 4538405
-0.50267959 1.0769724 6.2049322 5129254
0.18604553 -0.3810519 4.9289203 4868135
-0.2541104 -0.29351091 5.2582536 4340769
-0.34130669 0.11626995 5.5469656 4932643
0.47012246 1.3833438 5.7824359 5458731
0.058578074 -0.45932889 4.9632883 4275488
-0.44796422 1.3446536 6.3322654 4208670
0.2780484 1.9900157 6.2558284 3222295
-0.33876768 -0.028227568 5.4593949 4932903
0.030421138 -0.46337342 4.9815893 4341280
-0.39689392 0.19857788 5.6276999 5985583
0.48269343 0.26407349 5.1225648 4078111
-0.49792972 1.0440818 6.1855588 4931875
0.021008074 -0.48762286 4.969595 4407073
-0.22582468 -0.34644616 5.2062898 4274719
0.3363049 -0.11361563 4.9995341 5196841
-0.18534729 -0.38595879 5.1612716 3946012
-0.50860339 1.0191801 6.1753025 4800290
-0.18628776 -0.36082268 5.1783485 3813916
-0.0043404102 -0.47658896 4.9948821 4538659
-0.025358319 1.9890614 6.4340763 2629905
-0.59304231 0.69735503 6.0263963 4734497
-0.45927477 0.19887006 5.6572704 5327916
0.33325255 -0.14641905 4.9535871 4604454
-0.019677132 -0.54371905 4.9505005 4867622
-0.48435968 1.3722249 6.348351 4471328
0.24561852 2.0397632 6.2841597 3090453
-0.54634994 1.0048685 6.1746554 4471582
0.44421357 1.1579112 5.6439195 4932901
-0.039204985 1.9844522 6.4383712 2761490
0.44533294 1.1335962 5.6254606 5064232
0.45416957 0.45280778 5.2340364 4143391
0.32233489 -0.1856159 4.9414349 4670500
-0.5910027 0.33652008 5.8142972 4997926
-0.47827911 1.3225267 6.3276887 4668449
0.0040148199 -0.54138684 4.937748 4801828
0.50193095 0.098873615 5.0034571 4209697
0.48389757 1.6165169 5.8846769 4866596
-0.35531923 -0.16363049 5.3783526 4866853
-0.54853249 0.21678901 5.7124882 4932390
0.46473408 0.4248544 5.2094159 4538146
0.43136191 1.8358705 6.054904 4340513
0.42983633 1.073034 5.6049886 4998693
-0.60376114 0.61971545 5.9853282 4866082
0.51467931 0.21379709 5.0537677 4472866
0.46662325 1.3335779 5.7480345 5392937
-0.54578304 0.90585685 6.1273913 4734239
0.30659562 -0.2576282 4.9103112 4736294
-0.12546349 1.9131876 6.4555664 2958611
-0.58515865 0.60280573 5.9736605 4734498
-0.48161033 1.2781688 6.3022628 4470814
-0.17260119 3.4209929 7.3511448 65793
-0.57497627 0.26193357 5.7563577 5392938
-0.14213598 1.9129924 6.459517 2958611
0.51589561 0.17681932 5.0328398 4802086
-0.49993485 1.2423419 6.2877936 4273949
-0.55350327 0.87284327 6.1111779 4208412
-0.60329086 0.56458962 5.9566355 4734239
-0.14410254 3.4139185 7.3357182 65793
-0.23601858 -0.41863942 5.1586876 4538145
0.45319486 1.7482753 5.9994869 4209184
-0.16687715 1.8900754 6.4611316 2893075
0.50421458 0.14348364 5.0299244 4604451
0.12041497 2.0454845 6.3665295 2696210
-0.37004489 0.016989589 5.4944925 4998439
0.075098157 2.0348668 6.3921933 2564368
0.098012149 -0.48638248 4.9114499 4209696
-0.23592398 3.3753898 7.3765197 65793
0.46175015 1.2521334 5.6883502 5524780
-0.20149785 1.8683395 6.4643555 2761490
0.40371251 1.936389 6.1235843 3551001
-0.25374377 3.3648219 7.3669043 65793
0.46690935 1.7438905 5.9702401 4274977
0.40915614 1.9220083 6.1131363 3682330
0.39059711 0.83069593 5.4967341 4538148
-0.58386374 0.4750582 5.9032307 5195046
-0.15097401 -0.46703947 5.08287 4801572
0.091911793 -0.50719094 4.8986526 4933415
0.46293914 -0.0096501112 4.9585938 4736038
0.45036858 -0.019098163 4.9681883 4406818
0.24788022 -0.33856773 4.9038978 4670244
-0.29152897 -0.33315277 5.2431684 4274720
-0.59392232 0.46164107 5.8965058 5195046
-0.2248621 1.8456935 6.4648638 3024404
-0.41474146 1.5354087 6.4058781 4142878
-0.23161945 1.8344874 6.4638948 3222038
0.48714596 1.5876592 5.8663297 4603684
-0.2619009 3.3627744 7.3658485 65793
-0.3801299 -0.060334325 5.449276 4998183
0.44249308 -0.040076613 4.9507384 5459502
0.44480503 1.2307609 5.7000089 5195558
-0.23306197 1.7946593 6.4557462 3484952
-0.28829116 3.3569901 7.385529 65793
0.48579812 0.32942641 5.1455693 3946527
0.42781931 -0.049790502 4.9585352 5130539
-0.28151956 -0.35010064 5.2267003 4275232
-0.30393785 3.3552301 7.3885169 65793
0.38555801 0.73539197 5.4456024 4735267
-0.44158626 0.18138933 5.6272588 5393194
0.47956991 0.37236476 5.1666622 4472353
-0.28298724 1.7793067 6.4618649 3484695
-0.35429668 -0.11209619 5.4087911 4735524
-0.28878331 1.7344842 6.4515848 3550744
0.37907147 0.68072832 5.424953 4340768
0.33034867 1.9945581 6.2067595 3090710
0.37912416 -0.079824805 4.9730711 5657391
-0.34696567 3.3466363 7.4208469 65793
-0.46123356 1.4344385 6.3733454 4142622
-0.40880847 3.312428 7.4347744 131586
0.48592073 1.4620904 5.803792 5392680
-0.52478784 0.21866095 5.7090845 4800806
0.32915461 -0.13888216 4.9721174 4933928
-0.45396799 3.2815504 7.4520488 65793
0.35274613 1.973403 6.1805987 2959123
0.40258777 0.5654127 5.3368564 4077599
-0.45499679 1.3664355 6.342411 4339742
0.49067688 1.4168754 5.7686968 5064230
0.36634332 1.9628897 6.1663418 3616536
0.3103534 1.9989784 6.2259307 3156502
0.30207658 2.0160198 6.2365046 3090710
-0.8765136 3.1302221 7.6215296 0
0.42192483 0.54703683 5.3084989 4406562
-0.0078763068 2.0173285 6.4256883 2564113
0.10581118 3.4876163 7.2164083 65793
0.08303988 3.4726677 7.2342262 65793
0.082408905 3.4813814 7.2188869 65793
0.071771026 3.4692683 7.2416458 65793
-0.18336147 3.4216199 7.3584065 65793
-0.50438142 3.2658684 7.4675398 0
0.50219381 0.23738873 5.0856328 4275230
0.39188856 0.62577748 5.3796029 4209441
0.43869919 1.1690607 5.6621838 4735524
-0.16420734 -0.45050383 5.1021376 4867107
-0.57472265 0.32979071 5.8094492 4603684
-0.32463568 -0.11629772 5.3995161 4932903
0.2639482 2.0173872 6.2685552 3090453
0.39399898 0.60119408 5.3664227 4143391
-0.20386666 -0.46466446 5.1080999 4341023
-0.58055407 0.65741688 6.0028381 5063718
0.20875746 2.0361056 6.3096404 2959124
0.23445582 2.0413234 6.2925806 2893332
-0.084635943 -0.51225686 5.0133667 4604449
0.5086863 0.13130581 5.0137138 4538659
-0.47281003 1.2638557 6.2942314 4602656
-0.53810561 0.96697611 6.1537571 4668448
0.51047671 0.11447024 5.0007019 4670245
0.17931926 2.0346525 6.3307352 2827283
0.16194344 -0.42248261 4.9127684 4802085
0.3121438 -0.21214604 4.9369755 4407327
-0.2205357 -0.42999244 5.1432333 4801316
0.38941115 0.84652752 5.5096698 4537891
0.4986012 0.11094368 5.0164647 4604197
-0.49063298 1.2683164 6.2977896 4273693
0.43107486 1.1029557 5.625587 5524523
0.028486431 -0.52123547 4.9377604 4670500
0.30012041 -0.2155509 4.9514804 4275743
-0.2623564 -0.37136161 5.2057476 4472355
-0.23945008 -0.3836602 5.1866751 4406562
-0.3456589 0.026481867 5.4948254 4932389
-0.26853591 -0.34358478 5.2264996 4143391
0.44267458 0.41947758 5.2366786 4077854
0.4288103 0.49714065 5.2780013 4143648
-0.0082701743 -0.50422525 4.9757977 4538402
-0.53592569 0.93193644 6.1364365 4800034
0.43401057 0.47973311 5.2648144 4274975
0.38363987 0.81202161 5.4939752 4866853
-0.34453252 -0.18125331 5.3634605 4603939
0.48925525 0.067105532 4.9952664 4209441
-0.56731641 0.31304419 5.7969632 4472098
0.41324645 1.0367619 5.6048326 5458730
0.40694767 1.0108771 5.593626 5196073
0.13222915 -0.47464705 4.8939304 4933413
0.13247102 -0.44257593 4.9213943 4538917
-0.032717407 -0.53483534 4.9665642 4472866
0.10906219 -0.45270002 4.9306531 4604452
0.4901036 1.5333242 5.8380318 5064230
0.28078067 -0.2798748 4.9219313 5328171
-0.59108794 0.54911798 5.9474182 4997411
-0.19305587 1.8581697 6.4616199 2827026
0.12802261 -0.46260917 4.907527 4801830
-0.5579083 0.82537645 6.0873804 4800031
0.46309406 0.34082198 5.1772113 4340768
0.40671563 0.9906708 5.5802603 5195816
-0.37080103 0.1596061 5.58289 3616024
-0.51506257 1.1522825 6.2477293 4866083
-0.34597376 0.13396001 5.558321 5195045
-0.51518184 1.1173562 6.2306676 4932132
0.47575605 1.3233479 5.7272038 5261610
-0.30796474 -0.27272367 5.2919636 4340769
-0.35378605 -0.053528309 5.4480133 4669989
-0.57443357 0.81242633 6.083837 4866081
-0.038969308 -0.4991951 4.9982538 4670243
0.46483743 1.2940906 5.7205381 5130023
-0.44143954 1.4114952 6.3628383 4471586
0.22914153 -0.35264277 4.9125328 4867622
0.39081734 0.92825729 5.5572405 4801316
0.032182276 2.0153015 6.4136248 2630161
-0.59499931 0.4321357 5.8781228 4406048
-0.57176471 0.78007513 6.0667434 4997668
-0.52250361 1.0881383 6.2157321 4997412
0.41991329 0.52001411 5.3011208 4143390
0.021112621 2.0129156 6.4179554 2695954
0.075474262 -0.49661756 4.9231081 4736036
-0.34258896 0.093307376 5.5322275 4603682
-0.28215614 1.7586383 6.456418 3484694
0.20565146 -0.38422775 4.9073668 4867877
-0.54092532 1.0655879 6.2069817 4866083
-0.082862437 -0.53732061 4.9924941 4538401
-0.52371657 1.0577254 6.1980958 4997668
-0.50754499 1.0373242 6.1831584 4931875
0.063205063 -0.50777125 4.9240484 4670500
0.055645764 -0.53108931 4.9090228 4801830
0.49862623 0.25799406 5.0995579 4209439
-0.1100052 -0.48094141 5.0477467 4735781
-0.098172992 -0.52060628 5.0137572 4736036
-0.13071039 -0.5019207 5.0424252 4736037
-0.13616657 -0.4823035 5.0614004 4669987
-0.74713635 3.2158406 7.571136 0
1.5696043 3.9562359 6.5765409 0
0.52219498 3.4595511 6.9405022 65793
0.047857046 3.4742746 7.2447019 65793
1.573064 3.9437509 6.567122 65793
-0.77345991 3.1973529 7.595552 65793
0.025034904 3.4724936 7.2578907 65793
0.50984287 3.4615405 6.9492011 65793
1.5662881 3.9646347 6.5867872 0
0.015597701 3.472204 7.2636046 0
0.50159711 3.4658642 6.9573584 65793
-0.74891686 3.2034597 7.5837336 65793
1.5360304 4.0009031 6.6347203 0
0.00016820431 3.4736614 7.2740698 0
0.475582 3.4842272 6.9835653 65793
1.5217301 4.0018444 6.6329079 0
-0.78711987 3.188962 7.6073246 65793
1.4508243 4.005538 6.6795444 0
-0.80082059 3.1884904 7.607451 65793
-0.012398273 3.4710922 7.2799301 0
-0.036698341 3.4502883 7.283453 65793
-0.81466329 3.1767378 7.6093202 65793
1.4587951 3.9355307 6.633563 0
-0.054842889 3.4519267 7.2796855 65793
0.44959068 3.4913907 7.0042911 65793
1.4764864 3.9154491 6.6108565 0
-0.82681286 3.1619124 7.6081929 65793
-0.061401606 3.4419789 7.2940173 65793
-0.83911455 3.15485 7.6117525 65793
1.4704273 3.9256897 6.6207309 0
0.48504156 3.4790459 6.9749846 65793
-0.076001167 3.4337997 7.2983599 65793
1.4454429 3.945648 6.647253 0
-0.88816935 3.114922 7.6189623 65793
1.4334011 3.950474 6.6590924 0
-0.085970759 3.4258909 7.299974 65793
-0.098256469 3.4179215 7.3029962 65793
1.3824677 3.9861181 6.7098107 0
-0.11061418 3.4141173 7.308486 65793
-0.90035594 3.1041431 7.6204309 65793
-0.12301695 3.4129353 7.3155289 65793
0.40635067 3.5086083 7.0412269 65793
-0.91273558 3.1016049 7.6266704 65793
1.4207555 3.9425769 6.6613712 65793
0.39420706 3.51875 7.0546942 0
-0.19767129 3.4195771 7.3659229 65793
1.4087926 3.9328413 6.66329 0
0.37341297 3.5746312 7.1001577 0
-0.92558575 3.1039836 7.6361046 65793
1.3966666 3.9279203 6.6692824 0
0.37174082 3.5852776 7.1096449 0
-0.93810844 3.110791 7.6491923 65793
0.37082487 3.5631313 7.0919371 0
-0.22308636 3.4036455 7.3721046 65793
1.3836582 3.9260554 6.674212 0
0.38045585 3.5401077 7.076344 0
-0.96236533 3.1178451 7.6669984 65793
0.36457479 3.5720906 7.1041889 0
1.3704365 3.9788394 6.7138262 0
0.35887563 3.5668194 7.1047869 65793
-0.38165137 3.3318429 7.4295664 65793
1.3585854 3.9669874 6.7140465 0
-0.9760046 3.1172233 7.6727028 65793
-0.98768395 3.1215746 7.6849999 65793
0.38431144 3.529222 7.0668974 0
-0.39478219 3.323256 7.4327559 65793
1.36623 3.9338121 6.6903143 0
-0.99979788 3.1316328 7.6980605 65793
1.3528055 3.9531293 6.7102213 0
1.3447661 3.9410996 6.7027569 0
-1.0130682 3.1379366 7.7104778 65793
-0.51804316 3.2669563 7.4768376 65793
1.5754353 3.9319122 6.5588827 65793
0.43469524 3.4951601 7.0157375 65793
-0.54642105 3.2674334 7.4848833 65793
1.5768348 3.9205513 6.5512781 65793
-0.95094836 3.1144547 7.655931 65793
-0.55566555 3.2604027 7.4964752 65793
1.5779516 3.908731 6.5437069 65793
0.4213596 3.4997127 7.0266976 65793
1.5794586 3.8970222 6.5359573 0
-0.59223211 3.2466278 7.5112553 65793
1.5812556 3.8853974 6.5280762 0
-1.0618974 3.1233873 7.7321172 65793
-0.61521071 3.2631559 7.5419598 0
1.5813133 3.8732719 6.5209875 0
-0.62992251 3.2709761 7.5489087 65793
0.34494001 3.5559874 7.1050014 65793
-0.64504606 3.2694988 7.557476 0
1.5821191 3.8613625 6.5135579 0
0.32821155 3.555151 7.1001644 65793
-0.60407609 3.2467117 7.5193396 0
1.579486 3.8484635 6.5076971 0
0.32246816 3.5479791 7.1164093 65793
-0.61357772 3.254499 7.5291376 65793
-1.0740041 3.1103659 7.7308936 65793
1.5466038 3.8402059 6.5206785 0
1.5451819 3.8479772 6.5289164 0
-1.0873079 3.1063943 7.7374806 65793
0.27227831 3.5433373 7.1449924 65793
1.5325283 3.8501935 6.5333781 0
0.25993896 3.5384693 7.1498518 65793
1.5716196 3.8391595 6.5071883 0
-1.1131668 3.1382267 7.7729135 65793
1.5587834 3.8340578 6.5108104 0
-0.65476644 3.2708168 7.564301 0
0.24765277 3.5305328 7.1528935 65793
-0.6672107 3.2720575 7.5727792 65793
1.4837539 3.8942831 6.5939784 0
-0.67936611 3.2728097 7.5805101 65793
0.2363587 3.5202963 7.1562281 65793
1.512454 3.8732667 6.5741072 0
-0.69204891 3.2715688 7.5879765 65793
1.4964842 3.8775587 6.5765419 0
0.22307968 3.5146828 7.1589909 65793
1.48633 3.8828311 6.5808029 0
0.21113116 3.516017 7.1668177 65793
-0.70375448 3.2645822 7.5908551 65793
-1.1361434 3.1556773 7.7973957 65793
1.5196346 3.8470802 6.5381279 0
0.19240123 3.5218871 7.1823025 0
1.511415 3.8490729 6.5571599 0
1.4967923 3.8620579 6.5650139 0
1.4998233 3.849915 6.5580416 0
-0.71598756 3.2490728 7.5898123 65793
0.18565726 3.52352 7.1874557 0
0.16742438 3.5217876 7.1813698 65793
-0.72411931 3.2348657 7.586617 65793
-1.0981587 3.1160564 7.7534471 65793
-0.73256344 3.2207685 7.5836811 65793
0.14866841 3.5072269 7.2010341 65793
0.83644032 3.9669199 7.0397277 0
0.12447548 3.4955192 7.2093034 65793
0.82411325 3.9613471 7.0441699 65793
-1.4637049 2.9008574 7.8533216 65793
0.81174719 3.9580302 7.0499482 0
-1.4713759 2.9084535 7.8622828 65793
0.78687239 3.9558029 7.0640955 0
-1.4843249 2.9186769 7.877327 65793
0.76225221 3.9465437 7.0741167 0
-1.4572996 2.8905568 7.8433375 65793
-1.4680251 2.8837843 7.8460836 65793
-1.4788251 2.8856726 7.8539133 65793
0.75009525 3.9311109 7.0727177 0
0.73227239 3.9300463 7.0579872 0
0.74362838 3.9117393 7.0654817 0
0.74051476 3.8991723 7.0590477 0
-1.4928955 2.8851824 7.8623981 65793
0.73772585 3.8893685 7.0561485 0
-1.5053228 2.8854003 7.8702707 0
-1.5095588 2.8876767 7.8742352 0
0.7208339 3.8586221 7.0484819 0
0.71425104 3.8484993 7.0470095 0
0.7015872 3.8388956 7.0501781 0
0.68965137 3.8341804 7.0540133 0
0.67599857 3.8216484 7.0556664 0
0.66413677 3.8045313 7.0539074 0
0.65809095 3.790019 7.0479989 0
0.65693951 3.7775464 7.0414619 0
0.65745449 3.753803 7.0273309 0
0.65418625 3.7320113 7.0167465 0
0.64822149 3.7148957 7.0095196 0
0.64249194 3.6979597 7.0040054 0
0.63038707 3.6732321 6.9976492 0
0.61136949 3.6430311 6.9916263 0
0.60604799 3.6293075 6.9871111 65793
0.59966052 3.6153822 6.9828424 65793
0.59130239 3.6019046 6.9802132 0
0.57848549 3.5894885 6.9708271 0
0.57492542 3.5718474 6.9729381 0
0.56899381 3.54794 6.9627295 65793
0.56421971 3.5323453 6.956635 0
-1.5555776 2.9179401 7.9205208 65793
-1.5706717 2.9191771 7.9279814 0
-1.025242 3.1419721 7.7202735 65793
-1.0376569 3.1415009 7.7277374 65793
0.54859054 3.5228422 6.9446626 0
0.55635417 3.5058012 6.9460983 0
-1.5787141 2.9143209 7.9374752 0
0.37273574 3.5962577 7.1187463 0
1.4076388 3.9941137 6.7000747 0
1.3937683 3.989048 6.7058988 0
-0.94737232 3.1184974 7.6663194 65793
0.38515484 3.5878711 7.1057081 0
1.3887982 3.9686275 6.712667 0
-0.95924449 3.1263742 7.6802354 0
0.38573194 3.5754452 7.0991426 0
-0.97290993 3.1240375 7.6837816 0
1.3868517 3.934782 6.6870689 0
-0.62606537 3.2704191 7.5570145 65793
1.3742281 3.9671345 6.7147627 0
1.3746169 3.9429977 6.7004032 0
-1.0584247 3.1100986 7.7323771 65793
-1.0709395 3.0948014 7.7302785 65793
1.5385357 3.8673902 6.5573874 0
-1.1088834 3.1206031 7.7682915 65793
1.576279 3.8535943 6.5265007 0
1.5756887 3.8422577 6.5180616 0
-1.1338632 3.1375089 7.7941408 65793
1.5639216 3.8500366 6.5321465 0
-1.1311959 3.1223593 7.7901082 65793
1.5630494 3.838963 6.5232553 0
1.551397 3.870409 6.5525074 0
1.5501181 3.859715 6.542964 0
1.536111 3.8576968 6.5459623 0
1.5131476 3.8846087 6.5825386 0
-1.462476 2.8822188 7.8572626 65793
1.4868424 3.9027522 6.6062613 0
1.526318 3.8636336 6.5632143 0
1.5236598 3.8542266 6.5514574 0
1.5129375 3.8610306 6.5672183 0
0.6812607 3.8163414 7.0593557 0
1.5424668 3.9835224 6.6093254 0
0.29704654 3.5478735 7.1321926 65793
1.5569674 3.9683285 6.5914502 0
1.4321489 4.0022531 6.6889801 0
-1.5406531 2.9515886 7.9307895 65793
0.54676557 3.4781122 6.9359488 65793
-1.1599228 3.1563683 7.817205 65793
1.5066366 4.0052705 6.6443076 0
-1.5565622 2.971103 7.9523325 65793
-1.1622206 3.1606746 7.8165288 65793
1.4817672 4.0065994 6.6605816 0
-1.5813488 2.9715204 7.9677477 65793
-1.1871372 3.1647296 7.8344178 65793
-1.5927166 2.9609065 7.9686594 65793
-1.5947045 2.9360518 7.9554424 0
-1.5348276 2.9289804 7.9140086 65793
-1.5804631 2.9201961 7.9373436 0
-1.505977 2.923306 7.8927259 65793
-1.5195774 2.9090805 7.8929286 65793
1.5649658 3.9798205 6.6162295 0
0.58031321 3.5013354 6.9543343 65793
-1.5289125 2.9282043 7.9154902 65793
0.58000183 3.4778514 6.9388518 65793
-1.522099 2.8980718 7.9114385 0
0.58251953 3.4517279 6.9279079 65793
0.55357218 3.4485621 6.9324083 65793
-1.0165619 3.1308475 7.7245407 65793
0.31929791 3.5414286 7.1361055 65793
-1.0456651 3.0928838 7.7289562 65793
1.577171 3.9692729 6.5985994 0
-1.145005 3.1470835 7.8066788 65793
1.5270864 4.0079169 6.6548839 0
-1.1358787 3.1183 7.8006668 65793
1.4750286 4.0002813 6.6826372 0
-1.5894306 2.9399526 7.9765692 0
0.56817484 3.5174007 6.9567289 0
-1.5666066 2.9035673 7.9331226 0
-1.5887072 2.9145844 7.9569483 0
0.53402209 3.4547091 6.9400616 65793
-1.4873425 2.913949 7.8993969 65793
0.5478512 3.4349265 6.9414639 65793
-1.511444 2.8862135 7.8963084 0
0.85003722 3.9660749 7.0492163 0
0.41908258 0.56845814 5.3172979 4209184
-0.61796457 0.63933241 5.9989824 4931617
-0.57171804 0.98224467 6.1674547 4866083
0.35323405 1.9956255 6.1811075 3090452
0.49914217 1.4827267 5.7937708 5327401
-0.045264989 -0.58401036 4.9311085 4538658
0.16650206 -0.45748055 4.8772874 4604707
0.32215017 2.0128515 6.2151732 3353880
0.065137863 3.4866409 7.2121615 65793
-0.23554587 -0.44889593 5.1328945 4406816
-0.51127011 1.3145313 6.3278723 4471071
-0.25659853 -0.42993498 5.1567254 4604195
0.49568903 1.3969913 5.7456646 5195815
0.52696645 0.19946229 5.028275 4736036
-0.19969681 -0.49055386 5.0853462 4407075
-0.52136213 1.2915474 6.3157291 4602913
-0.3824265 -0.11108673 5.4163117 4669476
-0.52354676 1.2663462 6.3022447 4011293
0.52423728 0.17171502 5.0166183 4736037
-0.30658105 -0.36807787 5.2228551 4538148
0.10401952 -0.51025653 4.8839197 4736037
0.29365307 2.0295672 6.2438011 3024660
-0.22523129 -0.45899999 5.1201859 4538146
-0.23193049 -0.48262906 5.1051416 4801572
0.52224076 0.16225755 5.0125999 4670245
-0.13859254 3.4138227 7.3227029 65793
0.48889726 0.028509736 4.9614601 4669990
-0.46723476 0.18605316 5.6451602 5920049
-0.31796771 -0.34349382 5.2452493 4867110
-0.080766529 1.9679997 6.4475527 2893332
-0.41317025 0.15549862 5.5902104 4406048
-0.33093706 -0.30796325 5.2755065 4406562
0.26776212 2.0434422 6.2640071 2958868
-0.3956154 1.6317694 6.4330101 3616537
-0.39453965 0.025363684 5.5054049 4603683
-0.5906738 0.87587065 6.1168261 4800032
-0.1802308 3.4214625 7.3469791 65793
-0.40261316 1.6130894 6.4285135 3748122
0.23161733 -0.38476825 4.8778915 4538915
0.48725724 1.3280659 5.7123141 4867110
-0.29875916 -0.38559246 5.2081919 4537891
0.46394765 -0.020166159 4.9417777 4933161
0.31023705 2.028151 6.2287054 3024917
-0.57400298 0.85480452 6.1047049 4931875
0.39755678 0.80366492 5.4658909 4669732
0.44370091 -0.032563329 4.9613643 4604197
0.4873805 1.2782103 5.6692615 5261609
-0.23593727 3.3893433 7.3683839 65793
0.063319564 -0.53714967 4.8964496 4736037
-0.59627342 0.81767702 6.0890241 4734496
0.45205218 1.8284998 6.0240483 4143134
0.47067654 1.2602901 5.6811028 5261609
-0.42228606 1.576929 6.4222713 3616536
0.022288144 -0.57284188 4.8962355 4538915
0.4303444 1.8765324 6.0675344 3879707
-0.4017289 0.10115159 5.5526605 4471839
0.17618883 2.0449274 6.3324223 2564113
-0.38581511 0.082762718 5.536489 5130023
0.15049535 2.0470338 6.3494411 2433040
-0.25246885 3.3717928 7.3580627 65793
0.4643572 0.46328282 5.2236328 4209439
-0.50528598 0.20253801 5.6828446 5722159
-0.38388634 -0.15200734 5.392622 4603940
0.14302152 2.0694795 6.3519459 2630162
0.43187112 -0.050315857 4.9491463 5328172
0.39334249 0.75239927 5.4441161 4867109
-0.44587365 1.5271407 6.4073544 4208414
0.10146362 2.0554495 6.3761578 2564369
0.47726023 0.40128589 5.181313 4341024
0.39974272 0.73386019 5.4225302 4866853
-0.55239463 1.0719995 6.2122235 4800289
0.45813417 1.8007077 6.007256 4472097
-0.59150302 0.76708192 6.061204 4997668
0.46725762 1.7792253 5.9865208 4472098
0.46028405 1.221128 5.6641064 4998951
0.40366423 0.71499413 5.4061084 4472609
-0.59981066 0.73002887 6.0431428 5128997
0.50205261 0.30032647 5.1113629 4143389
-0.45214432 1.4975899 6.3960867 4142621
0.37699759 -0.087473869 4.9610009 5525806
0.38030595 1.9707267 6.1499639 3813658
-0.24678062 1.8430653 6.46701 2958867
-0.35130787 3.3534665 7.4071875 65793
-0.60427552 0.7143718 6.0363164 4931619
-0.32740831 3.3525105 7.3956947 65793
0.3518604 -0.12375069 4.9465466 3814945
-0.27128142 1.8170619 6.4658046 3222038
0.40660965 0.62211126 5.355504 4143647
0.42535597 1.8968881 6.0806909 3879965
0.32459033 -0.17134273 4.9486871 4802085
0.39607489 1.9399434 6.1329632 3485208
-0.45347154 3.2970243 7.4328547 65793
-0.60306823 0.36803102 5.8358512 4734755
0.48187876 1.6462365 5.9038491 4537889
0.41397834 1.9333197 6.1096554 4076829
-0.31376207 1.7432723 6.4540024 3616538
0.41914386 1.9228531 6.0992041 4011550
-0.61715037 0.65820932 6.0092278 4800032
-0.48028398 3.2747736 7.4493618 65793
-0.49436876 3.2696197 7.4576588 65793
0.32818568 -0.21283472 4.9121742 4341536
-0.86587149 3.1526933 7.6110601 65793
-0.86850721 3.1408682 7.6183271 65793
-0.88568938 3.1351211 7.6138549 65793
0.49645227 1.5375036 5.8291969 4932646
0.035339355 2.0491385 6.4091749 2432783
0.021060705 2.0327151 6.4167266 2761746
-0.043680429 -0.56741047 4.9446683 4670244
-0.046656698 -0.54944921 4.9628773 4604195
-0.32645559 -0.21344328 5.3372869 4603939
0.31639242 -0.23792553 4.9123158 4275745
-0.084692985 -0.57448459 4.9619551 4669731
-0.38884044 0.17762065 5.6026902 4274719
-0.39351347 0.14188039 5.5747762 3946014
-0.50890326 1.3405124 6.3390865 4405535
0.50410783 0.058261275 4.9650035 4472354
-0.059218794 -0.57886791 4.9439716 4538402
-0.34445575 -0.28162849 5.2981577 4538145
-0.26455858 -0.39656293 5.1856971 4669731
-0.37174118 0.11598706 5.5528708 4932387
-0.3783583 1.6720371 6.4452081 3616537
-0.067923367 1.9910228 6.4448681 2761490
-0.56613302 0.94699353 6.1480541 4734240
0.29425722 -0.27877676 4.9067836 5065258
0.42254555 1.0373312 5.5908375 5458730
0.40188247 0.87936825 5.5099454 5195816
-0.11288857 1.9692274 6.4595332 2564369
0.137254 -0.49287796 4.8736687 4867877
0.12274015 -0.5020473 4.8769174 4736292
-0.38215679 -0.027571082 5.4706492 5064232
-0.6055069 0.54012477 5.9439831 4931619
0.27634805 -0.30762279 4.8996124 5065257
-0.12544155 -0.51950264 5.0267453 4670244
0.47788805 1.6721693 5.924561 4866852
0.26731473 -0.32991958 4.8892303 4604707
0.25722957 -0.35622895 4.8777895 4670500
-0.6049487 0.50790012 5.9249778 5392167
0.39786637 0.67236954 5.3886509 4341026
-0.41278771 0.16388285 5.5978718 4340255
-0.42233205 0.17074871 5.6090999 4932134
0.39781308 0.66221189 5.3841267 4472355
-0.62237376 0.50232327 5.9234843 5260581
0.40265566 0.91953623 5.5312843 5130024
0.47954768 1.3037945 5.7054553 4932903
-0.61088443 0.45449257 5.8927131 5261095
0.44911027 0.48925567 5.2500877 4275233
-0.1662977 -0.49963856 5.0611672 4341023
-0.37904114 -0.13156414 5.4030304 4537889
-0.36950049 -0.091431618 5.4255543 4669731
0.22472018 -0.37918484 4.8921442 4670500
0.20380706 -0.40034401 4.8920612 4802085
-0.4493418 1.4702637 6.385128 3945500
-0.28904507 -0.3916142 5.1998572 4801061
0.40583503 0.65047818 5.367918 4406562
0.18638951 -0.40444613 4.906805 4802085
-0.2485652 1.8139375 6.4618587 3090452
-0.48921344 1.4208277 6.3687367 4011037
0.19415337 -0.42681503 4.8772364 4736293
-0.27390963 1.7867028 6.4624262 3419160
-0.36757597 0.063760161 5.5210705 4801316
-0.46727693 1.3914704 6.3553581 4340000
0.45240867 1.2160822 5.6737466 5130280
-0.61091316 0.69681162 6.0283198 4931618
-0.53284377 1.0954022 6.221046 4800291
0.49213958 0.36068296 5.1469069 4011805
-0.57807785 0.28373718 5.7749224 5195303
-0.34959993 -0.21085989 5.3463712 4669732
0.48554701 1.5599552 5.8552122 4800803
0.036054313 -0.54303336 4.9132857 4736293
0.49748629 0.34448075 5.134964 4143647
-0.53768909 1.0334067 6.1877985 4668705
0.51001412 0.10108054 4.9915476 4472868
0.018458664 -0.54901242 4.921011 4736037
-0.0062350333 -0.56952691 4.9193101 4407073
-0.027014256 -0.56276536 4.9371929 4735779
0.086931527 3.4884257 7.2100401 197379
-0.50690925 1.3642163 6.3469768 4208412
0.52941597 0.23250473 5.0392814 4341281
-0.57810867 1.0027206 6.1772008 4866083
0.35124713 2.0055428 6.1823111 3222038
-0.33213559 1.7481211 6.4568143 3287831
-0.52647787 1.3266649 6.3341265 4405535
-0.63204777 0.64116138 6.0011973 4866082
0.5131529 1.4873022 5.7736735 5327143
0.51090384 1.4734614 5.7702317 5261608
0.31014949 -0.28603411 4.877141 4867878
0.43197346 0.57920623 5.3040452 4011806
0.47612435 1.7652566 5.9647756 4340768
-0.34912717 1.7013326 6.4489307 3879708
-0.17849648 -0.56015468 5.0169182 4472609
-0.12721929 1.9704393 6.4625201 2432783
0.4292115 1.0211549 5.5653114 5130280
0.15105498 -0.51119232 4.8469143 4736292
-0.53991652 1.2763475 6.3100657 4668705
-0.38454878 -0.25485051 5.3264737 4537890
-0.14696398 1.9449615 6.463675 2695697
-0.3726435 -0.27899599 5.3089752 4340512
0.2644785 -0.37207079 4.8541212 4801829
-0.17631716 1.910549 6.4645972 2695697
-0.18035147 -0.52337265 5.0481477 5196073
-0.61786121 0.31834137 5.800622 4669219
-0.5847013 0.92947584 6.1421123 4931875
-0.19523081 1.8984722 6.4676714 2827283
-0.051215857 -0.6043942 4.9159641 4735779
0.4921295 1.3524196 5.7205429 4932645
-0.19333461 1.8862087 6.4659643 2893076
0.25327563 -0.38120699 4.8583264 4670244
0.11187124 -0.54591274 4.8490367 4604451
-0.070317328 -0.62427664 4.909339 4604195
0.49969655 1.348677 5.7030182 4867110
-0.1315991 3.4181118 7.3062797 65793
-0.60714555 0.89858419 6.1308293 5063203
0.44408137 1.850685 6.0388832 4340512
-0.22001424 1.878558 6.4670043 2827283
-0.65367156 0.53029627 5.9403138 4997410
0.40781814 0.84137839 5.4754286 4932902
0.4628675 0.49181783 5.2329473 3946269
0.50485212 0.36622155 5.1308255 4341025
-0.61653596 0.29345834 5.7850842 4997925
-0.41350618 -0.1067158 5.4263086 4340768
0.4874469 1.3039598 5.6906958 4735010
-0.16237119 3.4159713 7.3275976 65793
-0.53683954 0.20398688 5.696547 5458989
-0.54653758 1.1324166 6.2404323 4602913
0.21264267 -0.43153012 4.8542852 4736292
-0.63959163 0.50458157 5.9253569 5129253
0.44393569 1.8807571 6.0458889 4077342
-0.42640391 1.5911791 6.4267883 3550743
-0.17378816 3.4169869 7.3326664 65793
0.22724223 2.068017 6.2921433 2301455
0.46271199 1.8317083 6.0089126 4274720
-0.62332261 0.47434807 5.90486 5326630
-0.43205819 0.14564085 5.5874362 4866596
-0.24399786 3.385442 7.3557854 65793
-0.29162216 1.7979116 6.4653511 3485209
0.52426875 0.27449644 5.0674706 3946526
0.46688271 1.1961038 5.6322117 5063974
-0.26479578 -0.47261107 5.1254854 4143391
-0.25999397 3.3702888 7.3538246 65793
-0.45681688 1.5403024 6.4134569 4011036
-0.27630296 3.3640699 7.3640175 131586
0.21547604 2.0540142 6.3027782 2432783
-0.61152077 0.82700276 6.0954046 4800289
-0.31083876 1.7911935 6.4640403 3024916
0.3930195 -0.072544575 4.9618421 5591856
0.47296083 0.43321311 5.2001576 4077599
-0.29921281 3.3605988 7.3715668 65793
0.35949206 -0.10848284 4.9568996 4736040
0.48717839 0.3994838 5.1661921 4472611
0.41262317 0.66990185 5.3655372 4341026
0.18733978 2.064918 6.3209643 2367246
-0.60918069 0.75798434 6.0578671 5194532
0.52348852 0.14298153 4.9928703 4406819
-0.32500094 -0.40516412 5.203023 4801318
0.49439132 1.6479334 5.884397 4998181
-0.35849297 3.3502908 7.4108315 65793
0.53257883 0.12077296 4.9668069 4801830
0.34094954 -0.14676893 4.9387302 3946530
0.34185129 -0.15547717 4.930294 3814943
0.12119538 2.0792019 6.3625216 2498832
0.33467793 -0.19167578 4.9176311 4538915
-0.63156176 0.68901551 6.026361 4800033
0.32880569 -0.23836017 4.8964109 4473380
