ply
format ascii 1.0
comment PCL generated
element vertex 1160
property float x
property float y
property float z
property uchar red
property uchar green
property uchar blue
element camera 0
property float view_px
property float view_py
property float view_pz
property float x_axisx
property float x_axisy
property float x_axisz
property float y_axisx
property float y_axisy
property float y_axisz
property float z_axisx
property float z_axisy
property float z_axisz
property float focal
property float scalex
property float scaley
property float centerx
property float centery
property int viewportx
property int viewporty
property float k1
property float k2
end_header
-1.1635784 1.8551387 5.4204359 46 38 21
0.14465457 2.2242346 4.8227348 62 55 31
-1.1912565 0.073796868 4.3989367 26 22 11
-1.1663771 -0.017317772 4.333972 32 28 15
0.058201492 1.3679397 4.3780336 58 53 30
-0.41378331 -0.30650294 3.6933665 60 52 26
-1.1575941 -0.045851111 4.3107481 33 30 16
-0.39217949 2.6054075 5.3744278 29 25 13
-1.3067538 0.37425947 4.6457977 47 38 19
-0.41901538 -0.31795871 3.6917737 59 50 24
-0.82964867 2.4635754 5.5625405 38 32 17
-1.2014052 0.014040351 4.3802576 44 39 22
-0.42171025 -0.30052328 3.6996133 57 50 25
-1.1781007 0.030178547 4.3577995 32 28 15
-0.42734134 -0.31592083 3.69664 62 54 28
-0.430893 -0.31003237 3.7018239 60 54 29
-0.4257682 2.6027174 5.3980942 24 20 10
-0.43549797 -0.3217591 3.7008944 63 57 32
-0.86659539 2.4229944 5.5664825 41 35 18
-1.1010472 -0.16101122 4.2070079 41 35 19
-1.1995544 0.14511347 4.4346762 38 31 17
-0.21318167 -0.10393751 3.669318 44 39 22
-0.63566184 2.5559134 5.4852481 30 25 11
-1.2735462 0.27725482 4.5543714 43 37 21
0.027868152 1.4448651 4.4242911 52 48 29
-1.3199428 1.0110898 5.0068607 49 45 27
0.074801087 1.128024 4.2096405 60 55 31
-0.91933966 2.342833 5.53725 36 30 16
-1.1452518 0.0098236799 4.3173976 31 27 13
-0.24650492 -0.15895855 3.6620202 58 52 28
-1.110069 1.9557306 5.4186587 51 43 24
-1.2950311 0.40352178 4.6411371 51 42 21
-0.68127453 2.5450702 5.509192 34 29 14
-1.2658129 1.53223 5.2812037 51 43 25
-0.27135971 2.6027832 5.2870531 31 28 14
0.12803942 2.2208154 4.8095903 61 54 30
0.043232322 1.3434184 4.3586502 58 53 30
-1.2611704 0.25968432 4.5344729 42 37 21
-1.1330292 -0.049344063 4.2776928 37 33 18
-1.2661383 1.506857 5.2455611 44 37 20
-0.018746376 0.63435918 3.9828825 39 36 22
-1.3284357 0.87213087 4.9310126 63 56 32
-0.95368373 2.2520223 5.515965 40 33 17
-1.3261535 0.85726982 4.9095926 58 50 28
-0.71849394 2.5348182 5.5261116 38 32 16
-0.026807994 0.58919901 3.9639845 35 30 16
0.054391503 1.7607453 4.6100116 76 70 42
0.086155295 2.3342793 4.9054327 39 34 19
-1.3285719 0.82619673 4.9018002 70 62 37
-1.1163483 -0.10209799 4.2384562 43 38 22
0.030924678 1.7583673 4.6029897 72 66 39
-1.1767375 0.057927847 4.3703127 25 22 13
-0.35133213 2.6000633 5.3354607 26 22 11
-1.3264592 0.8070308 4.8919392 73 65 39
-1.2946725 1.4293863 5.2370062 52 45 26
-0.36886507 2.5885596 5.3259401 29 25 12
-1.1695466 0.044820786 4.3556585 27 24 14
-0.37654564 2.5917416 5.3348098 29 25 12
-0.4113782 2.5930843 5.3621321 25 21 10
-0.97023785 2.211833 5.4907351 42 35 18
-1.091604 -0.14976013 4.1963496 39 34 18
0.023864567 1.665168 4.5608377 70 63 37
-0.040508211 0.57872248 3.9581726 41 37 20
-1.089644 -0.16408312 4.1881676 38 34 19
-0.79019403 2.4971278 5.5498366 34 28 14
0.066550732 1.1799283 4.2425737 60 54 31
-0.527358 2.5801852 5.4349794 25 21 9
0.14239615 2.2031183 4.8032041 58 52 29
-0.99077147 2.1802664 5.4896078 36 30 16
-0.80386484 2.489511 5.5595069 37 31 16
-0.80749059 2.4769554 5.5465279 35 30 16
-0.12297565 2.5453956 5.1544404 33 29 15
-0.43074679 2.5941157 5.3820333 27 23 11
-1.0816836 -0.18313634 4.1740799 41 37 21
-0.99969894 2.1556654 5.4752903 38 32 17
-0.91153252 -0.35042763 3.9596128 40 36 20
0.014305085 1.5968344 4.5207882 62 55 31
-1.3201826 1.1103055 5.0911102 47 42 27
-0.03657645 2.4848881 5.0655956 32 27 14
-0.16317132 -0.01911068 3.707042 28 24 12
0.024642646 1.5618185 4.502038 65 59 35
-0.52706248 -0.24516582 3.7877016 71 65 37
-0.17707855 -0.029137611 3.6959431 27 24 12
-0.57713127 -0.26996982 3.8089154 66 59 33
-1.3199656 1.0288318 5.0204973 48 44 27
-0.58997041 -0.27641416 3.813906 75 68 35
-1.3141445 1.2655199 5.1533079 40 32 18
0.14796799 2.0771136 4.7236009 50 42 22
-0.17766649 2.5783496 5.2083144 33 29 15
0.041405141 0.84501052 4.0603638 62 56 32
-0.17863643 -0.068856955 3.6799242 32 28 14
-1.049818 2.0706525 5.4582691 44 37 20
-0.073983759 2.535156 5.1341362 34 30 16
0.14105546 2.0184383 4.6918683 48 39 20
-0.19923717 -0.075289011 3.6765673 40 36 20
-0.86940473 2.3894477 5.5223227 42 37 21
0.0074582696 2.4539654 5.0238795 36 31 16
0.016454935 0.77939975 4.0427923 37 32 16
-0.0041162074 2.4685578 5.0418396 36 31 16
-1.3329146 0.74906087 4.9019561 68 59 34
-1.314961 0.74226683 4.8466544 60 52 29
0.074940503 2.3594999 4.9267344 39 34 18
-1.3092157 0.71538121 4.8298588 57 50 27
-1.2953142 0.48831892 4.6954212 51 41 21
-1.1399813 1.9046143 5.4298968 46 39 21
-1.149137 1.8788943 5.4194198 43 36 20
-1.1538966 1.8701556 5.4192314 47 39 22
-1.1683882 1.831943 5.3906059 46 38 22
-1.2049979 1.712559 5.3560309 53 45 25
-1.2062541 1.7003078 5.3451605 49 42 23
-1.2106386 1.6838201 5.3330016 52 43 24
-1.2343216 1.6414187 5.3377676 52 43 23
-1.2293121 1.6335411 5.3120575 55 46 25
-1.2467991 1.5891941 5.3024378 52 44 24
-1.0232759 -0.27313256 4.0921011 37 33 19
-1.1600814 0.01255703 4.3346853 36 32 17
-0.91170275 2.3584239 5.5437751 39 34 19
-0.6250158 2.5531173 5.4689245 35 29 14
-1.2782226 0.24991798 4.5532207 37 33 20
-0.29676211 2.6057148 5.3073287 26 22 11
-1.1457558 -0.019354105 4.3058672 30 27 15
-0.005224973 0.63032919 3.9791315 37 33 19
-1.2283885 0.18634677 4.4775038 26 21 11
-1.1712701 0.078524113 4.3790755 26 20 11
-1.1874522 0.1179359 4.4135318 31 26 14
-0.55179346 2.5760155 5.4464669 27 22 9
0.030788958 1.6438122 4.5502114 66 60 35
0.032735586 1.6009562 4.5265985 64 57 34
-1.295047 0.32240403 4.6003876 42 35 18
-1.0950406 -0.13738799 4.2052145 40 35 19
-1.0343659 2.0993891 5.4687405 40 34 19
-1.2413085 1.6075861 5.3147664 56 47 26
-0.92440939 -0.33481526 3.9822454 34 31 17
-0.88410711 2.38627 5.5430465 39 33 18
-1.2970977 0.46128333 4.6787663 49 40 20
-1.318491 0.99790096 4.9897518 48 43 25
-0.19001335 2.5717721 5.1990294 31 26 14
-1.3175213 0.98353654 4.9795136 50 46 28
-0.90601122 2.3516335 5.5262599 38 32 18
-1.317014 0.9768576 4.9713368 50 46 27
-0.20493335 2.5810454 5.2222519 32 27 14
-1.2516594 1.5697041 5.2879481 58 49 28
-1.2861485 0.44596887 4.6508303 46 38 20
-1.0997082 1.9845214 5.4319324 41 35 18
-1.3194704 0.94122976 4.9407463 59 53 31
0.060481906 1.8617951 4.6434736 78 69 38
-0.26240563 2.5934806 5.2649412 30 25 13
-1.2797873 0.58782679 4.727313 58 49 27
-0.23520024 -0.11518967 3.6654363 43 38 21
-1.2045351 0.18577349 4.4460201 33 28 16
-1.1128109 -0.072987556 4.2406645 33 30 17
-1.3295144 0.90326869 4.9557805 59 54 32
-0.92110312 2.3119605 5.5100813 42 36 19
-1.284744 0.39791143 4.6200933 51 42 21
-1.3287175 0.89282542 4.9443994 62 56 32
-0.72844225 2.5242605 5.5146813 40 35 19
-0.25845873 -0.155586 3.6626172 53 47 25
-1.2851834 0.51669294 4.6983566 45 36 18
-0.25853986 -0.17156684 3.6610744 65 59 34
-1.1285679 -0.0074903965 4.2865853 30 27 15
-0.30867499 2.5949786 5.2947698 27 24 12
-0.32310367 2.5977092 5.307569 28 25 12
0.032478094 1.7304192 4.5886164 71 63 35
-0.94355607 2.2449079 5.4715471 41 34 18
-0.96068192 2.2332149 5.4995089 41 35 18
-1.2781496 1.480365 5.2615824 48 41 24
0.096050143 2.2925491 4.8650122 44 37 21
0.026816189 1.7197654 4.5832238 77 70 39
0.086565375 2.3221505 4.8923645 38 33 18
-1.2868886 0.31430125 4.5839224 45 38 20
0.1170091 2.2544181 4.8349237 48 42 23
-0.78739059 2.4913316 5.534399 34 29 15
-0.019265562 2.4765041 5.0516438 33 28 14
0.11925352 2.2376437 4.8209124 53 47 26
-1.3184193 0.7981714 4.872375 72 64 38
-0.98535836 2.1820292 5.4777203 38 32 16
0.031231344 1.6936719 4.5756078 70 63 36
-1.019763 -0.24524271 4.089653 33 29 16
-1.1110114 -0.090055704 4.2336493 39 35 19
0.13243544 2.1877656 4.7817907 67 61 35
-1.1012735 -0.10951078 4.2183285 37 32 18
-0.048586875 2.4877906 5.0691361 32 27 14
-1.2435319 0.24915731 4.5042052 38 33 18
-1.1581099 1.8534729 5.3943062 46 39 22
0.054320812 1.2568187 4.2969818 59 54 31
-0.39293045 2.5946531 5.3517523 27 23 11
-1.0797471 -0.15102577 4.1771688 37 33 18
-1.2966228 1.4142461 5.2233438 51 44 27
-0.53607875 -0.24394631 3.7920072 66 60 33
-1.0789711 -0.16253352 4.1723304 41 37 22
0.089823961 0.94189852 4.0973663 72 66 38
-1.0729791 -0.18454683 4.162961 45 41 25
-1.3205674 1.1265205 5.062911 52 47 28
-1.2518451 0.25996017 4.5184803 43 37 21
-0.4779247 2.56883 5.3686318 25 21 10
0.1396063 2.1241817 4.740097 51 47 28
-0.076375604 2.5083594 5.0928898 29 25 13
-0.18014339 0.016252518 3.7177267 32 29 16
-1.3210166 1.0608944 5.0238695 52 47 27
-0.58392787 -0.24889946 3.8113678 68 59 29
-1.3019121 0.68580294 4.8055801 67 59 34
0.00027731061 1.5327543 4.4779949 60 55 33
-1.3094977 1.3435415 5.1829953 55 49 31
-1.1764019 0.13643956 4.4069252 36 31 17
0.029283941 1.521783 4.4771881 58 53 31
-1.1813216 1.7842404 5.3584156 54 46 25
-0.17133269 2.5713959 5.1947303 34 30 15
-0.86359435 2.4066765 5.538044 40 35 19
-1.2925842 0.60894597 4.7603898 70 62 36
-0.56609654 2.5605323 5.4297891 31 25 11
0.059173584 1.212709 4.2644768 55 50 29
0.13201571 2.0626755 4.7020407 53 45 23
0.029354811 2.3932166 4.9621458 39 34 18
0.12679917 2.0554879 4.6957064 50 43 23
-1.2829343 0.61773092 4.7453971 65 57 32
-1.0645905 2.0424278 5.4465594 45 38 20
-0.20499888 -0.055127978 3.6808007 38 33 18
-1.2768044 0.50151885 4.6717587 53 43 22
0.01267159 2.434742 5.0022292 40 35 19
-0.021340519 2.467417 5.0389132 35 30 16
0.12311143 2.0127583 4.6806526 50 42 21
-1.2015879 1.7102385 5.342649 50 43 24
0.11564493 1.983639 4.6706657 71 65 39
-1.1968502 1.7051272 5.3134146 54 46 27
0.049667776 2.3831 4.9518356 41 35 19
-1.2160361 1.6634079 5.3143435 50 41 22
0.018932521 1.4975764 4.4601808 53 48 28
0.021485806 1.783293 4.6118212 73 67 38
-1.1359193 -0.032487392 4.2885199 38 34 19
-1.2839833 0.37083828 4.6009793 50 40 20
0.14448458 2.1493635 4.759655 56 51 29
-1.2146344 0.20267761 4.4633703 27 23 13
-1.250159 0.23317492 4.5145588 36 31 18
-1.2299774 0.21443963 4.4847808 25 22 12
-0.92558777 -0.30877018 3.9923766 31 28 15
-0.76669306 2.5084507 5.5363784 35 30 15
-1.0827594 -0.12484825 4.193675 38 33 18
-0.61416167 2.555598 5.4626598 34 28 13
0.063239694 1.226722 4.2749901 54 49 28
-0.91843653 -0.32849932 3.9748979 35 32 18
-1.163523 0.11130393 4.3859472 30 24 13
-0.8182919 2.4566958 5.537796 37 31 16
-1.1655957 0.090215802 4.3796387 28 23 13
-0.82664073 2.4498696 5.5405149 36 30 16
-1.142689 0.080956578 4.3555984 26 23 13
-0.84600484 2.4315252 5.543252 39 33 18
-1.1542449 0.090746045 4.3694725 30 26 15
-1.1511215 0.048854113 4.3431306 26 23 12
-0.88082695 2.3752246 5.5214596 43 37 21
-1.1590414 0.076902151 4.3664007 28 25 14
-1.1531386 0.031333804 4.33535 26 23 12
-1.0777402 2.0172963 5.4350638 41 34 18
-1.078365 2.0082002 5.416944 45 38 20
0.049075723 1.1347533 4.2093019 60 55 31
-1.3161962 0.77541596 4.859786 65 58 34
0.0049858093 1.5023953 4.4613304 53 48 28
-0.29989219 2.5822945 5.2712364 27 24 12
-0.22575134 2.5810521 5.2283835 32 28 15
-0.11245584 0.37906432 3.8747416 34 31 18
-0.26911077 2.5801492 5.2416768 30 27 14
-0.18289176 -0.042251825 3.6879222 32 28 16
-1.255285 1.555388 5.2816167 55 47 27
-0.72392404 2.5182662 5.5014343 37 32 18
-1.2328289 0.24154079 4.4890313 34 29 16
0.072920024 1.095705 4.1868382 55 50 28
-0.35731137 2.5840914 5.3108535 26 23 11
-0.0088615716 1.4784579 4.4407644 58 53 33
-0.91073376 2.3258038 5.504703 41 35 19
-1.0981629 -0.077145815 4.2223091 36 32 18
-1.2642338 1.5215529 5.2583008 48 40 23
-0.73772848 2.5096533 5.5011859 34 29 16
-1.1697493 0.16951799 4.4050202 37 32 19
-1.3042846 0.7329762 4.8223977 59 51 28
0.041759133 1.0779786 4.1707993 57 51 29
-1.2909784 0.71044964 4.787868 61 51 27
-0.91836631 2.3059926 5.4972897 43 36 20
-1.277137 0.6103304 4.7327666 64 55 32
-0.74783665 2.5150404 5.5214458 39 33 18
-1.1526666 0.14933491 4.3862495 30 25 14
-1.2750139 0.56203347 4.705935 56 46 24
-1.1159546 1.9392642 5.4115744 49 41 23
-0.23521043 -0.086745024 3.6701496 48 43 24
-1.1328213 0.13434803 4.3664265 34 29 16
-1.12954 1.914757 5.4153185 47 40 22
-0.92681575 2.2749643 5.4778824 41 34 18
0.10721326 2.2704759 4.8463874 47 40 22
0.050540328 1.013684 4.129982 62 56 33
-0.24184404 -0.13078713 3.6633606 43 38 20
-0.42968524 2.5753593 5.3411593 26 22 12
-0.95798361 2.2172105 5.4689751 44 36 20
0.018704414 1.3630285 4.3664727 59 54 32
-0.26219481 -0.13861263 3.6629002 44 38 19
-1.1334901 1.8912144 5.3876572 41 35 19
-1.27053 0.52539581 4.6787767 50 41 22
-1.2898228 1.4227138 5.2004757 52 46 28
-0.95405805 -0.27887261 4.019825 37 34 21
-0.062320858 0.60281265 3.9636514 35 29 15
-0.97022063 2.1964941 5.465426 44 37 20
-0.82117152 2.4426157 5.5186276 40 34 18
-0.50846463 2.575563 5.4091964 22 18 8
-1.2940403 1.4010527 5.1928291 52 46 28
0.12192523 2.1416845 4.7397618 59 54 32
-1.3031187 1.3849857 5.2127438 53 46 28
-0.98523784 2.1692252 5.4595799 41 34 19
0.14402729 2.133183 4.7481771 56 51 30
-0.28728807 -0.16657245 3.6618853 61 54 29
-1.1664647 1.8197854 5.364099 54 46 26
0.11500645 2.2172229 4.7967463 59 53 30
-0.99836963 2.1471989 5.4551811 37 31 16
-0.041365445 2.4696767 5.0412445 34 29 15
-1.2853366 0.42067802 4.6321511 49 40 20
-0.14746341 2.5496202 5.1608028 29 26 13
-1.3118665 1.3217436 5.1734715 63 57 35
0.13334554 2.0938213 4.720902 51 44 23
-1.0176275 2.1245956 5.466434 42 36 20
-0.17582116 2.5599616 5.1778793 30 26 13
-1.3082449 1.2981219 5.1493144 49 44 27
-1.1952299 0.17688453 4.4330244 34 29 16
-0.11458972 2.5125904 5.099268 24 21 10
-1.3112465 1.2747855 5.1447878 40 33 18
-1.3228555 0.8876875 4.9224415 63 56 32
0.021433651 0.84242171 4.0567846 58 51 28
0.038843155 1.2035344 4.2573423 52 47 26
-0.22038379 2.5667663 5.2028508 31 27 14
-0.086090893 2.5169864 5.1049285 30 26 14
0.0089331865 1.6263453 4.5354881 64 58 33
-1.3117414 1.2332878 5.1238227 44 38 22
-0.1211417 2.5306551 5.1303544 32 28 15
-1.197484 1.7386841 5.3564472 55 47 26
-1.3239201 0.82514924 4.8890557 70 62 37
-0.0044775307 1.5699079 4.5021877 65 59 36
-1.1258125 0.014022827 4.2931805 25 22 12
0.047782362 1.1602269 4.2267084 61 55 31
-1.2587042 0.30204308 4.5355844 42 35 18
-0.018703461 2.4519336 5.0198946 36 31 16
-1.203526 1.6903108 5.3167572 50 42 24
-0.0094526708 2.4372048 5.002368 37 31 16
-1.2060069 0.21471274 4.4546595 31 26 14
0.0098510683 2.4165616 4.9845433 42 37 20
-0.19119665 0.022022247 3.7184837 36 33 19
-0.19440427 -0.0092992783 3.7014885 25 21 11
0.059624612 2.3558049 4.9170618 39 34 18
-1.2173669 1.6384202 5.2793303 51 42 23
0.072988153 2.3447022 4.9094081 37 32 16
-0.89533377 2.3525352 5.5125151 36 30 16
-1.1184571 -0.053600907 4.2564507 30 27 15
-0.63402539 2.542027 5.460567 34 28 14
-0.65640414 2.5366616 5.4752512 33 28 14
-0.69734365 2.5243804 5.4917536 36 31 17
-0.33783233 2.5956008 5.3144908 26 22 11
-0.036477327 0.64695233 3.9861269 53 49 30
-0.037211806 0.62006074 3.9754214 37 34 20
-0.57821012 2.5623057 5.4445987 32 26 12
-1.2798893 0.4716382 4.6561699 52 43 21
-0.79450524 2.4836326 5.5325317 33 28 15
-1.1283032 0.1070528 4.3531561 23 21 12
-0.79799271 2.4699454 5.5196877 37 31 17
0.13038784 2.0363696 4.6921434 50 42 22
-1.1504045 0.11917651 4.3764267 30 26 14
-1.2829345 0.35690141 4.5919666 46 37 19
-1.1313572 0.078833222 4.3412037 23 21 12
-1.1385167 0.044077635 4.3256235 23 20 11
-1.1824689 0.14872038 4.4155149 37 32 18
-0.24748053 2.5897136 5.2499671 30 25 13
-1.3043177 0.76576775 4.8352413 57 49 27
-1.2401013 1.5878874 5.2758532 54 45 25
-0.64879394 2.5238819 5.4477477 33 28 14
-0.21359757 -0.040300965 3.6846731 36 32 17
-1.3203695 1.1210203 5.0484128 53 47 27
-1.2313366 0.26989686 4.4879065 47 42 24
-1.1324841 0.15672553 4.3696003 36 31 17
-1.1253374 0.1510098 4.3609562 33 30 17
-0.68064976 2.5188823 5.4665685 35 30 16
-1.1227791 0.14168704 4.3561664 32 29 17
-1.2746332 0.62945914 4.7338557 68 59 35
-1.3191129 1.0990967 5.0365543 58 52 31
0.057988465 1.1095505 4.1946101 52 47 27
0.040411174 1.8765401 4.645175 77 70 37
-0.022009701 1.4496189 4.4187942 55 50 30
-1.3191812 1.0837395 5.0233364 52 46 26
-1.1026635 1.9760728 5.4247885 45 38 21
-1.2699332 1.4924327 5.2363362 46 38 21
-1.1016673 1.9580307 5.3944168 47 39 21
-0.76028806 2.4946339 5.5023355 34 29 15
-0.3238728 2.5815511 5.2797365 26 22 10
-0.39867806 2.5801444 5.3265386 28 24 12
-0.77390969 2.4855244 5.5070133 37 32 17
-0.33120021 2.5849462 5.2910976 26 22 10
0.081074297 2.3146431 4.8809719 42 36 20
-1.2801175 1.4649515 5.2286391 50 44 26
0.0056111217 1.7543764 4.5947967 77 70 40
-1.2617726 0.54721183 4.6769905 55 46 25
-0.94754207 2.2338991 5.4644837 41 34 18
-0.8041544 2.4485979 5.501945 40 34 19
-0.092085481 2.5036249 5.085391 25 21 10
-0.81704688 2.437077 5.5033941 40 34 19
-1.3184656 0.95822889 4.9585514 50 45 27
-1.3237188 0.91701829 4.9413676 60 54 32
-0.2625334 -0.11810482 3.6655848 48 42 22
-1.1155294 1.9212227 5.3789053 48 40 22
-0.83122611 2.4209228 5.5035772 39 33 18
-1.2676635 0.46007407 4.6286197 51 42 21
0.091037571 2.2572775 4.8253107 53 46 26
0.0024833977 1.7125427 4.576961 76 70 41
-1.2757273 0.43267465 4.6227775 52 43 22
-0.98193038 2.167613 5.4473782 41 35 19
0.10777521 2.2328324 4.8089075 53 47 26
-1.3226725 0.87311995 4.9091659 61 53 30
-0.10174161 2.5313272 5.1302013 32 28 15
-0.0012230575 1.6746045 4.5604162 74 68 40
-0.86258996 2.3669438 5.484951 43 37 21
-1.1489257 1.8588448 5.376255 47 40 22
-0.023643106 1.6425219 4.5397286 70 63 37
-0.01388979 1.5183322 4.4675961 60 55 34
-0.023459703 1.61418 4.5255628 70 64 37
-1.1595291 1.8280249 5.3571768 56 47 27
0.12327951 2.1687019 4.7604828 62 57 33
-0.0082648993 2.4041028 4.965693 39 33 18
-1.1729794 1.7914085 5.3435984 51 43 23
-1.2734628 0.33188987 4.5664425 48 39 21
0.0040133893 2.4102004 4.9770479 40 34 18
-1.0147998 2.117775 5.4296274 40 33 18
-1.029084 2.0953908 5.4376965 41 35 19
-0.58995426 2.5470631 5.4289093 33 27 13
0.11457747 2.1821332 4.7657146 65 59 34
-0.20488387 2.5610213 5.1867828 28 23 12
0.041199446 1.1423066 4.2129879 61 56 32
-1.1830516 1.7735182 5.3500662 56 47 26
-1.0434732 2.0607336 5.415607 45 38 21
-1.3112284 1.2034377 5.0983396 59 54 33
-1.1857488 1.7451569 5.3270979 52 44 25
0.1220926 2.0884812 4.7097197 54 48 26
-1.1917276 1.7269751 5.3233771 52 45 26
0.047748506 2.341393 4.8978767 37 31 17
-1.0615838 2.0373831 5.4221511 48 40 22
-1.314646 1.1714416 5.0785604 51 46 28
-0.20762473 -0.0086510181 3.6994174 23 20 10
-1.319675 1.1392391 5.0594912 52 47 28
-1.1040936 0.016132236 4.2636471 36 33 21
-1.2279885 1.6194115 5.2823787 52 43 23
-1.2359502 1.6060998 5.2886357 52 43 23
0.10439742 2.0024984 4.6690269 72 65 39
-1.0843775 -0.032367945 4.2221475 34 31 18
-1.2197263 0.22817111 4.4719925 27 23 12
-0.8736766 2.362201 5.4961681 41 35 21
-1.3104198 0.81552672 4.8588352 65 57 33
-1.0839491 -0.091599822 4.2039776 38 33 18
-0.8993873 2.3359983 5.4997883 40 34 19
-0.54868495 2.5621076 5.4158325 27 22 10
0.055019975 1.0293386 4.1396565 57 52 30
-0.44011924 2.5799458 5.3605504 25 21 11
-0.30012321 -0.18346906 3.6628475 70 64 36
-0.62049127 2.5336008 5.435811 29 24 11
-1.3186612 0.82540423 4.8780255 66 59 34
-0.49483851 2.5672307 5.3816352 24 20 10
-0.78665644 2.4709649 5.5056071 41 35 20
-0.84928489 2.4091363 5.5152655 39 34 19
-1.2718298 0.30664361 4.5573335 43 37 20
-0.85461485 2.3867273 5.4931836 42 36 21
-1.3068419 1.257057 5.0991426 47 41 24
-1.2594919 0.53742588 4.6661949 55 46 25
-0.3711879 2.5792079 5.3097448 28 24 12
-0.41338396 2.5639036 5.2977409 27 23 11
-1.1984009 1.6887116 5.2914343 51 43 24
-0.00027960539 0.84662527 4.0550504 61 56 33
0.03070724 1.1462604 4.2156277 59 54 31
0.068495154 2.3029513 4.8632622 42 36 21
-1.2084925 1.6582279 5.2800813 52 43 24
-1.3106787 1.2150422 5.0852866 61 55 33
0.029754579 1.1285797 4.2049961 59 54 31
-0.019863337 1.5497758 4.4873695 57 52 30
-0.87546051 2.3366132 5.4654737 43 37 21
0.001783222 1.866405 4.6441102 68 62 35
-1.2413355 0.27865922 4.503262 50 44 25
-1.2959589 0.77629703 4.8239436 54 46 25
-1.2355131 1.5808709 5.2487583 51 42 24
-0.012200713 1.8355483 4.6290755 70 63 34
-1.2448895 1.5544513 5.2443824 51 44 25
-0.92214972 2.2717602 5.4619813 43 36 19
-0.010344714 1.4195713 4.3995714 55 51 32
0.10454184 2.1974556 4.7734551 63 56 32
-1.0605068 2.0304704 5.4049664 47 40 22
0.09853512 2.223695 4.7937899 56 50 28
-0.93583345 2.2483318 5.4569998 41 35 19
-0.010920614 1.3889152 4.3808613 56 51 31
-0.17946523 2.5479069 5.1590347 28 25 13
-0.21487045 0.022770405 3.7159417 32 29 16
-0.067846119 2.4803634 5.057467 30 26 14
-1.3139544 1.0035712 4.9601007 57 52 32
-1.2566922 1.5363309 5.2535968 50 42 24
-0.96209097 2.1958814 5.4431591 42 35 19
-0.94548821 -0.25858498 4.0059681 44 39 22
-1.2657118 0.42179799 4.5995955 51 42 22
-0.017576158 1.7575276 4.5918722 72 65 38
0.11884063 2.1255379 4.7279115 60 54 31
-0.68883479 2.5102084 5.4581809 36 32 17
-1.2851386 0.6872595 4.7709751 55 46 24
-1.1533637 0.19400799 4.3933716 33 29 17
-1.2658172 1.4962281 5.2242556 47 39 23
-1.0882673 1.9860975 5.3991404 44 37 20
-0.99490726 2.147619 5.4423552 36 30 15
0.12057233 2.0710635 4.6984015 61 53 31
-1.2704301 0.38972974 4.586349 43 35 18
-1.2681184 0.37633288 4.575511 47 39 20
-1.2813497 0.66219252 4.7543864 59 50 28
-0.73902881 2.4837995 5.4652305 37 32 17
-1.2865801 1.4464382 5.2258425 52 45 27
-0.99855065 2.1395483 5.4266338 37 31 16
0.11566043 2.0622897 4.6921139 57 50 29
-1.3150008 0.9630695 4.9368448 58 52 32
-0.23501331 -0.05958879 3.676805 41 36 18
-0.7587539 2.4733868 5.4703021 37 32 17
-1.1811395 0.20233893 4.4221678 24 21 11
-0.77039444 2.4735146 5.4855933 38 33 18
0.10615772 2.0299883 4.6771011 61 54 31
0.037884176 0.98222864 4.1136293 68 62 35
-0.15454188 2.5379963 5.140635 29 25 13
-0.25198615 -0.096290588 3.6676233 52 47 26
-0.033587843 2.4378507 5.0012131 34 28 15
-1.3174853 0.93651867 4.9295607 61 54 32
-1.1267083 1.8937393 5.3630915 44 38 21
-0.24411337 2.5705261 5.214272 31 28 14
-1.2645755 0.34663165 4.5574622 42 34 17
-1.2662432 0.57604045 4.6956458 57 49 28
-1.2561107 0.55338579 4.6685176 56 48 26
-0.28863549 2.5740633 5.2459636 26 23 12
-1.2537355 0.28063846 4.52565 46 40 22
-0.037076086 1.5887276 4.510416 68 61 36
-0.3021749 -0.15502179 3.664427 59 51 25
-1.14431 1.8491396 5.3499269 51 42 23
-0.026456654 1.5694166 4.499959 65 59 34
-0.29940265 2.5704494 5.246552 29 24 13
-0.068846583 0.58158213 3.9548397 46 42 24
-0.10043821 0.57144427 3.9439797 51 46 27
-1.3192289 0.86606044 4.8965039 60 52 31
0.055212677 2.3242874 4.8809156 42 36 20
-1.3039758 0.81323487 4.8469367 60 52 29
-0.05761528 2.466099 5.0369496 28 24 12
-0.57108825 2.5439169 5.4009395 28 23 10
-0.84048635 2.4019125 5.4897985 41 36 20
-1.2630771 0.50205636 4.6455774 51 41 20
-1.1962988 0.22746611 4.4438906 30 26 15
-0.13313156 0.36907852 3.8679426 34 31 18
-1.27355 0.40846837 4.6048293 46 38 20
-1.2957418 0.7555995 4.8147802 54 46 25
-0.87058198 2.3547549 5.4831343 41 36 20
-1.1177349 0.13985741 4.3466892 35 31 19
-0.7159555 2.5073757 5.4801583 37 33 18
-1.320663 1.0434138 5.0126343 53 48 28
-0.55127239 2.552001 5.397522 23 19 8
-1.1684628 0.18979228 4.4064808 28 24 14
-0.90974808 2.2978554 5.4729457 45 38 22
-0.28685302 -0.14753473 3.6624496 49 42 21
-0.75675976 2.4858031 5.4844451 38 33 18
0.00044423342 1.3317164 4.3450456 58 52 30
-1.3131902 0.85756797 4.8815293 64 57 34
0.013920099 1.2414553 4.2840996 52 48 29
0.0079156756 1.2117856 4.2639503 54 49 29
-0.32577994 2.565341 5.251698 28 24 12
-1.3101656 1.2280186 5.1029706 58 51 30
-0.025469601 1.5266289 4.4713812 57 52 31
-0.85139161 2.36461 5.4628205 41 35 20
-1.212124 0.25093794 4.4638867 37 32 18
-0.5858928 2.5329924 5.3978195 32 26 12
-0.35214418 2.5716586 5.2786288 26 22 12
-1.3098054 1.2101958 5.0725222 56 51 31
-1.218691 0.28425765 4.4729648 47 41 22
-0.59827828 2.5197494 5.3862581 32 27 13
-1.2578888 0.48481846 4.6258311 55 45 23
-0.62690997 2.513927 5.4119563 31 26 12
-0.39987007 2.5672207 5.2951808 27 23 11
-1.3118924 1.1918435 5.073791 54 48 29
-1.3210106 1.0606966 5.0096374 51 45 26
-1.0235962 2.0896668 5.4020987 41 35 19
-1.2495196 0.46336865 4.6017847 48 38 20
0.010006517 1.1555514 4.2227116 56 51 29
-0.23221362 0.0094742775 3.7063398 30 27 14
-1.3133513 1.1675477 5.0542908 58 52 31
-0.87390864 2.3271136 5.4518108 47 41 23
0.06378758 2.2873397 4.8429713 51 44 25
-1.0641351 -0.083130836 4.1777887 44 40 24
-1.2424953 0.44440448 4.5775619 52 43 23
-0.23163104 -0.012131095 3.6956019 26 23 11
-0.67036414 2.5078735 5.4361 36 30 15
-1.1105269 0.16297007 4.3347325 35 30 17
-0.90667379 2.2776809 5.4441252 42 35 19
0.070553124 2.2710631 4.8287735 51 45 25
0.0708341 2.2426097 4.8005161 54 48 27
-0.68786335 2.4971445 5.4327779 35 30 16
-1.2959869 0.8146615 4.8339057 57 50 29
0.0013900399 1.8565804 4.6403975 68 62 34
-1.1200796 0.15648901 4.353436 37 34 20
-1.073782 2.0070734 5.3969798 44 37 20
-0.1870617 2.5438142 5.1540794 26 23 11
-0.25862032 -0.05775547 3.6769099 51 47 28
-1.3169469 0.91071224 4.919467 62 55 32
-1.1475241 0.20296156 4.3888006 35 31 18
-1.1090956 0.13029957 4.3254752 29 26 15
-0.9458524 2.218714 5.4384971 39 32 17
-0.19623205 2.5530016 5.1715021 27 23 11
-0.22563753 2.5531418 5.1825876 31 27 14
-0.78619355 2.4467847 5.4768257 36 31 16
-0.97106278 2.1775527 5.4301019 38 32 18
-0.0033148527 1.732913 4.5832777 75 69 40
-0.029389322 1.711224 4.5712042 68 62 36
-0.061315566 0.74406868 4.0225859 54 50 31
-1.3008184 0.86840433 4.8613648 58 51 29
-1.2708708 0.67731309 4.7374191 52 43 22
-0.027026981 1.2762675 4.3080015 49 45 27
-0.28364402 -0.11730361 3.6678278 48 41 22
-0.13611993 2.518919 5.1118231 32 27 13
0.095341802 2.0409241 4.6757231 63 57 34
-0.16767493 2.53508 5.1374688 28 23 12
-1.2642599 0.6347571 4.7133155 65 56 32
0.014901876 1.0480915 4.1508131 63 58 34
-0.035203397 1.6679692 4.5511479 74 68 40
-0.044287115 1.6205425 4.5259986 73 66 39
-0.30916476 -0.13990259 3.6677151 61 53 26
-0.94990474 -0.24666262 4.0098886 41 36 21
-1.1066401 1.9255034 5.3555145 48 41 24
-1.2673301 0.60133737 4.7068357 62 54 32
0.022607327 1.0183271 4.1326923 62 56 31
-0.25723141 2.5695729 5.2165427 31 27 14
-1.2754772 1.4609935 5.2051773 46 40 24
-0.27340943 2.5626199 5.2123055 28 24 13
-0.32287359 -0.15482473 3.6692379 76 68 38
-1.2456346 0.37780726 4.5433793 45 37 19
-0.092663616 2.4749742 5.0509157 24 21 10
-1.132184 1.8777989 5.3500214 45 37 21
-1.2435386 0.54981381 4.6418905 59 49 27
-1.1410022 1.8632495 5.3595023 45 38 21
-1.2569735 0.33040273 4.5405922 43 35 18
-0.11490202 2.5036757 5.0858841 23 19 9
-1.0694966 -0.017613888 4.209199 28 25 13
-1.1468785 1.8349836 5.3368821 53 44 24
-0.55597043 2.5387623 5.377656 25 20 8
-0.30745298 2.557363 5.2249088 30 26 13
0.090950191 1.9898257 4.6607294 74 68 40
-1.2858517 1.416322 5.1774712 55 49 29
-1.1579602 1.8142371 5.3336749 52 44 24
-0.078172266 0.61370736 3.9645419 46 41 23
-0.030430406 2.425688 4.9870319 36 30 16
-1.249153 0.31984746 4.5217118 41 34 18
0.022081852 2.3749905 4.9304824 42 36 20
0.020610273 2.3554182 4.9069557 45 39 22
-1.1687908 1.7808797 5.3180871 55 46 26
0.03388375 2.367043 4.9240227 42 36 20
0.075515389 1.9575101 4.6558399 71 65 37
-1.2953568 1.385828 5.1760726 52 46 28
-1.3016422 1.2979449 5.1211205 63 57 37
-1.3059931 1.2760738 5.1168361 43 38 23
-0.83374178 2.3953018 5.470417 39 33 19
-0.61213022 2.5240879 5.4133534 30 25 12
-0.42589918 2.5692723 5.3245473 27 22 11
-0.45062253 2.557086 5.3233004 27 23 11
0.017838657 1.1791867 4.2395306 56 51 31
-0.63865107 2.5119162 5.4202209 34 28 14
-0.4908171 2.5553122 5.3551483 23 19 9
-0.52461463 2.5604799 5.3932819 24 20 10
-1.2872064 0.73859102 4.7891226 59 49 26
-1.135905 0.17424953 4.3739772 25 22 12
-0.70581704 2.4918764 5.4468422 35 30 16
-0.027491629 1.3099301 4.3309579 52 47 28
-0.88747436 2.3008792 5.4449625 48 41 23
-0.71734011 2.489665 5.4557223 35 30 17
0.04457587 1.0272812 4.1375446 57 51 29
-1.2592959 0.41409171 4.5823703 48 40 21
-0.28357172 -0.13813913 3.6634462 42 36 17
0.028990805 1.097975 4.1845188 53 47 26
-0.80315739 2.4283211 5.4747 37 32 18
-1.258812 0.37441301 4.560585 46 38 20
-0.048198134 2.4480314 5.0149188 29 25 13
-0.82298017 2.4151144 5.4825315 42 37 21
-1.2451324 0.30898309 4.512125 40 33 17
-1.2634811 0.70134157 4.7340202 61 50 27
-1.3008087 1.3180158 5.1317496 58 53 32
-0.9911437 2.1443272 5.4120965 39 32 17
-1.3112088 0.94837701 4.9113326 51 44 25
-0.79498738 2.4211986 5.4528584 41 35 20
-1.1768098 1.7452232 5.2884903 57 49 28
-1.3066785 0.91344815 4.8892174 56 49 29
-0.82271641 2.3967147 5.4566374 33 29 16
-1.0046341 2.1250713 5.410852 43 36 19
-1.1872464 1.7136006 5.2882609 54 46 27
-1.2672074 0.65946525 4.7246194 55 46 24
-0.2423377 0.016025662 3.710737 35 32 18
-0.83143532 2.3764088 5.4473567 39 33 18
-1.0353285 2.0671983 5.4016991 42 35 18
-1.1946776 0.25820148 4.4460044 45 41 24
-0.53096366 2.5373683 5.3561811 24 19 9
-0.15625075 0.37120056 3.8680999 36 33 19
-0.13829899 2.5019987 5.0867119 27 23 10
-0.056295097 1.501736 4.4529753 54 49 29
-0.03571713 1.2010214 4.2598257 48 43 26
-1.2599987 0.62034976 4.6983533 60 51 27
-1.3106645 1.1876926 5.0555372 56 50 30
-1.0662569 2.0092628 5.3788638 46 39 21
-1.318387 1.139237 5.0428591 53 48 29
-1.1626202 0.23873436 4.4043694 43 39 22
-0.0034737885 1.1202514 4.2001953 60 55 33
-1.0808256 1.9853718 5.3756437 45 38 21
-0.11359236 2.4881177 5.0661693 19 16 7
-0.94897628 -0.21881676 4.0094242 39 35 20
-0.16422841 2.5177007 5.1124501 29 24 11
-0.18014449 2.5261636 5.1277828 28 23 11
-1.2390537 0.54057842 4.6240263 58 49 28
-0.88581914 2.2908578 5.4288554 42 35 19
-1.0754627 0.0051549673 4.2226667 37 34 20
-0.036411464 1.3661184 4.3662333 53 49 30
-1.2161002 1.6246052 5.2513914 48 40 22
-0.69267738 2.4892337 5.4264507 35 31 17
-1.2460203 0.51811463 4.6221886 50 41 22
-0.92051202 2.2544348 5.4360538 41 35 19
-0.62760949 2.5048344 5.3922887 32 27 12
-1.0659471 -0.037609339 4.1911573 30 27 15
0.093194008 2.1790195 4.7516365 54 48 28
-1.2456622 0.36126637 4.53475 45 37 20
-1.2451973 0.49851596 4.6107254 54 44 22
-0.64465642 2.5009098 5.4028611 32 27 13
-0.036731124 1.3336754 4.346837 56 51 31
-0.19453135 2.5310206 5.1390686 27 23 11
0.098705709 2.1485832 4.7324934 60 55 33
-1.2420366 0.33098316 4.5149298 46 38 21
-0.6605292 2.4993658 5.4134541 32 27 13
-1.2401676 0.31950247 4.5076761 43 36 20
-1.227437 1.5864263 5.227819 52 44 24
-0.013748169 2.3932106 4.9479594 40 34 19
-0.94738024 2.2051797 5.4212074 42 35 20
-1.1121027 1.9114774 5.3490443 49 42 24
-1.2537467 0.45042562 4.6006708 46 36 18
-1.3145072 1.1268705 5.0103903 47 41 23
-0.032282859 1.1905602 4.2516499 51 46 28
0.0049501657 1.0166028 4.1314564 60 54 30
-0.32460946 -0.12215877 3.6722047 64 58 31
-1.3171742 1.111366 5.0184369 50 44 25
-1.2903488 0.802522 4.8167706 52 46 26
-0.069785446 1.6764311 4.5486584 74 68 41
-1.1334395 1.8639014 5.3343892 49 42 24
-0.015123367 1.1598506 4.2246552 52 47 27
-1.2904686 0.78099978 4.8130903 52 44 24
0.10665804 2.0991712 4.7072964 58 53 31
-0.96649706 2.1781275 5.4180851 40 34 19
-0.72368377 2.4686637 5.432559 38 32 17
-1.318413 1.0655698 4.9819593 56 51 31
0.10708457 2.0715878 4.6927614 63 57 35
-0.0015278161 0.95954949 4.0980258 61 56 32
-1.1558659 1.8067429 5.3154926 52 45 25
-1.3167844 1.0214702 4.979269 52 48 29
0.03212887 2.3193853 4.8686962 40 35 19
-1.280066 0.71056199 4.7678862 63 53 28
-1.2840259 0.76744449 4.7899585 51 42 21
-1.2507952 0.40214348 4.5620623 50 42 22
-1.3139777 1.0233986 4.9548669 56 50 31
-0.7615397 2.4524715 5.450747 37 31 17
-1.3133167 0.99365419 4.9388418 56 51 30
-0.7715081 2.4338102 5.440063 46 39 22
-0.058635175 1.5636072 4.4946933 50 46 28
0.072555423 1.9971011 4.6502285 76 70 42
-0.37479356 2.56322 5.2736363 27 23 12
-1.2783757 0.69065255 4.7597466 55 45 24
-1.2798618 1.4388881 5.1858454 51 44 27
-1.2804782 1.4119871 5.1548929 56 50 31
-0.066336632 2.4412611 5.007225 29 24 12
-0.077446878 2.46892 5.0427856 28 24 13
-0.0822604 2.4522936 5.0219302 23 19 9
-1.2963212 1.3530836 5.1422453 63 57 36
-0.050717354 2.4311647 4.9920888 34 28 14
-0.06419158 1.5492369 4.4849238 46 42 25
-0.81972969 2.4044425 5.4623671 37 32 18
-0.51527524 2.5406284 5.3488321 23 19 8
-1.0445787 -0.088829517 4.1502867 38 35 22
-0.56970286 2.529881 5.3743105 28 23 10
-0.014449418 1.2540185 4.2936029 46 42 25
-0.22996318 2.5453 5.1724682 32 28 15
-0.031678587 1.4131252 4.3945074 52 48 29
-1.2985994 0.85262311 4.8511796 54 48 26
-0.037204593 1.3963996 4.3857293 54 49 30
-0.85573196 2.3442502 5.4426579 48 41 24
-0.15381846 0.35629725 3.8615875 36 33 19
-0.23739463 -0.039358139 3.6835668 43 39 22
-1.2270401 0.29548967 4.4849215 51 44 24
-0.67932564 2.4974701 5.4250736 35 30 15
-1.2540507 1.516042 5.2148581 45 39 22
-0.70707548 2.4762273 5.4271622 35 31 16
-0.30670491 -0.11233008 3.6715407 59 54 30
0.0097988546 0.99082565 4.1162772 66 60 35
-0.7513541 2.4731488 5.4617257 36 31 16
-1.249253 0.41545296 4.5673032 52 43 23
-0.017196536 1.1501321 4.2183294 52 47 27
-0.97897816 2.1547465 5.4015427 39 33 18
-1.2518587 0.65530109 4.6968265 53 43 22
-1.1151991 0.18315279 4.3448505 28 24 14
-0.24678941 2.5397186 5.166378 32 28 15
-1.2492026 0.64612931 4.6884112 57 47 25
-0.44862142 2.5483088 5.3004713 26 22 11
-1.2937859 1.2977182 5.0839415 59 53 31
-1.2500103 0.60504496 4.6691494 62 53 30
-0.48644358 2.5449109 5.3299961 24 20 9
-0.19238228 2.5163596 5.1142306 29 25 13
-1.2427628 0.58623892 4.6518836 62 54 31
-1.0147489 2.0986381 5.3921442 44 37 20
-0.18428531 2.5128546 5.1066871 28 24 12
-1.1012801 0.15568995 4.3174443 44 40 24
-1.2614748 0.67534512 4.7184591 56 46 23
-1.3079898 1.2410787 5.0751266 56 49 29
-0.56222332 2.5218244 5.3529158 26 22 10
-0.92745292 -0.23517013 3.9788659 32 29 16
-1.1953402 1.6703731 5.2467303 52 43 24
-0.25632948 2.5433803 5.173471 31 27 14
-0.2675063 2.5529208 5.1936693 30 26 13
-0.61225581 2.5038099 5.3691034 32 26 12
-1.2507762 0.52650845 4.6366186 53 43 23
-1.1951094 0.28069019 4.4473572 46 40 23
-0.8646456 2.3060646 5.4102249 45 39 22
-1.2103918 1.624195 5.2237234 54 45 25
-1.0547633 2.0262272 5.3776288 45 38 20
-0.028216571 1.1660546 4.2303104 50 45 26
-0.6665833 2.48861 5.4032326 34 29 14
-1.1766171 0.25275695 4.4250154 44 40 23
-0.11672953 2.47401 5.0504394 19 16 7
-0.26149842 -0.026199102 3.6869023 38 34 19
-0.056918412 1.756518 4.5839033 64 59 36
-1.3073413 0.92762345 4.8962297 51 45 25
-1.232738 0.45685995 4.5706172 51 43 22
-1.1517127 0.23477292 4.3908377 45 41 23
-1.3037021 0.89851385 4.875793 51 44 25
-1.2341117 0.3668313 4.5201912 51 43 24
-1.3167176 1.0928272 4.9953971 58 52 32
-1.2319932 1.5662918 5.2102838 51 44 25
-0.05305168 1.6953945 4.5594063 74 67 39
0.08562541 2.2057621 4.7722702 59 53 30
-0.36364651 2.5576315 5.2573829 24 20 10
-0.40007374 2.5577264 5.2756729 26 22 12
-1.0932217 1.9526795 5.3576055 42 35 18
-0.063144922 1.6497231 4.5374842 72 65 39
0.0074946284 1.0791007 4.1712685 65 59 35
-0.91749626 2.2348895 5.4066048 38 32 17
-1.228097 0.41295397 4.5364642 53 45 24
-0.037857801 2.40411 4.9592028 35 29 15
-1.2181346 0.34285307 4.4910235 52 45 24
-0.93175757 2.2340329 5.4299316 36 30 15
-1.245311 1.5259489 5.1999617 48 40 23
-1.1093969 1.902681 5.3287411 47 40 23
-1.2536478 1.4966326 5.1818962 53 46 27
-1.2865621 0.83699608 4.8233361 59 51 29
0.097456753 2.1328597 4.7220716 63 58 35
-0.10110456 0.58243573 3.947098 43 37 21
-1.1968288 0.30017066 4.4534273 49 43 24
-1.1243827 1.8879824 5.3431935 46 39 22
-1.215817 0.30168593 4.4736676 51 44 24
-1.2865398 0.81061667 4.8102026 53 46 27
-0.13802856 0.54279286 3.9393604 60 55 32
-1.1439824 1.831421 5.3211784 51 42 23
-0.0056143403 2.3756163 4.9254341 39 33 18
-1.2645326 0.71436238 4.7410498 61 50 27
0.084984481 2.0113761 4.6600838 78 72 43
-0.046548694 2.4204383 4.9774022 35 29 14
-0.12005508 2.4640417 5.0395904 21 17 8
0.057035089 2.2613916 4.8131404 48 43 24
-0.21664795 2.5310519 5.1490645 29 25 13
-0.043532491 1.2679652 4.3041229 48 44 26
-1.0246315 2.0721872 5.3783064 45 39 21
-0.046979636 1.4387195 4.4105139 56 51 32
-1.0658985 1.9968557 5.3592043 45 37 20
-0.050634921 1.4157546 4.3985577 51 47 29
-0.28571928 2.5542336 5.2053847 27 23 12
-0.86967432 2.3177254 5.4345398 45 39 22
-0.074731112 1.6279349 4.5250778 65 58 34
-0.68753177 2.4746473 5.4044738 36 31 15
-0.70443922 2.4703 5.4162693 36 31 16
-0.024478585 1.2227746 4.2736506 50 46 28
-0.73870575 2.4626355 5.4387226 37 31 17
-1.2390383 0.34585607 4.5178614 47 39 21
-0.90617788 2.2602434 5.4195285 40 34 19
-1.2978513 1.3643895 5.1586018 54 48 29
-0.0021719337 1.1023837 4.1869602 60 55 32
-0.79213214 2.4146826 5.4418221 43 37 21
-0.94995153 2.1907125 5.4066978 36 30 15
-0.1195868 0.59218532 3.9482145 42 38 21
-1.1655912 1.7687995 5.2893696 57 49 27
-0.77262181 2.4191127 5.4214492 43 36 20
-1.2542667 0.72834963 4.724905 57 47 25
-0.53105915 2.5153179 5.3127294 28 23 11
-0.77841032 2.4029958 5.405499 41 35 20
-1.2885032 1.355454 5.1157751 63 56 35
-1.172179 1.7489955 5.2770338 57 48 27
-0.93195069 -0.22194409 3.9844348 28 25 13
-0.11507875 0.57485747 3.9420919 43 38 22
-0.026046604 1.8770037 4.6411734 64 57 32
-0.17424643 2.5048394 5.0949683 30 25 12
-1.1763963 1.7264154 5.2661119 55 47 27
-0.81336677 2.3785956 5.4237556 37 31 17
-0.023687005 1.8622085 4.638196 66 57 30
-1.1436704 0.24463439 4.3831096 45 41 24
-0.063787788 1.1978004 4.2646818 42 38 23
-0.12976483 0.56231737 3.9395971 48 43 24
-1.1817634 1.7081238 5.2605271 49 41 23
-1.2993455 1.2743431 5.0751081 56 50 29
-1.0039036 2.1104889 5.3836174 41 34 19
-0.051508427 1.8535775 4.6299124 62 53 27
-0.039943337 1.8385984 4.6252551 66 58 32
-0.81184685 2.3669899 5.4035726 41 35 19
-1.2733451 0.74662673 4.7654996 61 50 27
0.065541744 2.2224443 4.7785096 58 52 29
-0.042781293 1.1659249 4.2328553 49 45 27
-1.3049402 1.2277436 5.052134 57 51 30
-0.034146369 1.1526755 4.2211962 50 45 27
-1.1822748 0.29340982 4.4334965 45 39 22
-1.2664573 0.73582602 4.7491646 63 53 29
-0.84175396 2.3455353 5.4202647 46 40 22
-1.2042289 1.6470904 5.2417288 53 44 25
-0.075149268 1.3347467 4.3499751 48 44 26
-1.1804755 0.27961862 4.4285898 44 38 22
0.073905587 2.148154 4.7184992 59 54 32
-1.311264 1.1704813 5.0299072 57 51 30
-0.85275692 2.3142381 5.4000149 46 39 22
-1.1669829 0.26864219 4.409483 47 42 24
-1.1599081 0.26389635 4.4010496 47 42 24
-1.2462709 0.6230672 4.6691465 55 46 25
-1.2452459 0.61027086 4.6619492 62 53 31
0.083917141 2.1273043 4.711926 66 61 37
-1.2203398 0.36406291 4.502161 53 45 25
-1.0332313 2.0551131 5.3726864 42 36 18
-0.69184643 2.4579725 5.3835216 36 31 16
-1.216306 1.60391 5.215158 55 46 25
-0.88707662 2.2755077 5.4065905 39 33 18
-0.31382191 2.5407448 5.194428 29 25 13
-0.018886954 1.0388138 4.1449456 62 56 32
0.076193333 2.0485625 4.6703134 67 62 38
-0.71210229 2.4485726 5.3877058 37 32 16
-0.076167852 1.26454 4.3086743 40 36 21
-1.2367289 0.56386077 4.6345949 60 53 31
-0.13670966 2.4877424 5.066978 26 22 11
-0.074083656 0.76014036 4.02422 64 59 35
-0.72277266 2.4540901 5.4091578 33 27 14
-1.0480056 2.0295675 5.3632627 45 38 21
-1.0517685 2.0185649 5.3553772 47 40 22
-1.313732 1.1164899 4.9905829 59 52 32
-1.2305493 1.5564203 5.1928029 51 44 25
-0.002740562 2.3300476 4.8726969 38 32 17
-0.087741017 1.6555964 4.5361428 63 57 33
-1.1004378 0.18435633 4.3233109 35 32 19
-0.014786512 0.98215705 4.1100745 59 53 29
-1.0874052 1.9547822 5.3451858 41 35 19
-0.09189105 0.70213491 3.9976861 57 51 30
-1.3110728 0.97862542 4.9209466 54 49 28
0.0048387945 2.3663292 4.9153233 42 37 20
0.062051952 1.9987756 4.6447787 73 67 40
-0.90378249 2.2450826 5.3953156 33 28 15
-0.085291505 1.6090982 4.5150461 67 60 35
0.056667566 1.987772 4.6432509 74 68 41
-0.74926257 2.4311795 5.406363 43 36 20
-0.033132821 1.1279924 4.2060261 51 46 26
0.026891887 2.2975397 4.8407788 41 35 19
0.053798318 2.3037412 4.8580399 40 35 19
-1.2283726 0.53838784 4.6014862 61 53 29
-0.22474322 0.27894378 3.8241315 52 47 27
-1.2293829 0.48827028 4.5810885 53 44 23
-0.93292439 2.1925433 5.3830457 38 33 19
-0.93850732 2.1847229 5.383172 38 32 18
-1.2997723 0.92001438 4.8721466 44 39 22
-0.42350081 2.5601807 5.2996411 27 22 11
-0.43841285 2.5380797 5.26829 30 25 13
-1.2609457 1.4866674 5.1930704 53 45 28
-0.27564433 -0.037693024 3.6823361 47 42 24
-0.96356493 2.1636696 5.3897486 31 25 12
-0.084587842 2.4398777 5.0033774 28 23 11
-1.289742 0.87947243 4.8404198 51 44 24
-0.49526447 2.5305912 5.3075728 28 24 12
-1.2809198 0.82102931 4.8036294 54 47 26
-0.061481208 2.4003222 4.9469595 36 31 17
-1.1398664 1.8262384 5.2936487 46 39 21
-1.1514561 1.7964683 5.2844133 57 48 27
-0.52432936 2.5265856 5.3305283 26 21 9
-1.2937243 1.3229485 5.1057682 57 51 31
-0.99628788 2.1280916 5.394228 42 34 18
-0.04779619 1.1900282 4.2537599 47 43 26
-0.80272627 2.3949831 5.4303098 37 32 18
-0.06542325 1.6961491 4.557476 73 67 39
-0.64144009 2.4945469 5.3853831 33 28 13
-1.2244295 0.38018239 4.514163 54 46 25
-0.74406147 2.4453306 5.4228005 38 32 17
-0.066475302 1.5202668 4.4638972 55 49 31
-0.10959819 2.4569209 5.0302114 25 20 10
-0.044769347 1.2867324 4.3158503 48 43 26
-0.025229812 1.0691053 4.1649609 60 55 32
-1.2124319 0.32155442 4.4774194 53 46 26
-1.2802076 0.79664832 4.7906556 52 43 23
-0.21159437 0.31779575 3.8412216 35 31 16
-0.072077513 1.2979401 4.3261604 45 41 24
-1.2875125 1.3656625 5.1225948 58 52 31
-0.05992189 1.249969 4.2970543 45 41 25
-0.44921035 2.5414217 5.2866197 31 27 14
-0.93248308 2.208159 5.3995557 39 33 18
-0.96358836 2.1721716 5.4021211 35 29 14
-0.13152403 0.57645565 3.9427681 42 36 19
-0.20574951 2.4957886 5.0901694 27 23 11
-1.0056367 2.0899682 5.3592591 43 37 20
-0.10162416 1.4948615 4.4474196 57 52 31
-1.1912746 0.34529293 4.4640617 50 43 24
-0.19488293 2.5093856 5.104496 30 26 14
-0.053889602 1.8737564 4.6363626 63 55 30
0.052727461 2.2397809 4.7888651 52 47 26
-0.12717476 1.2208129 4.308701 37 33 18
-0.27931124 0.19577825 3.7984021 42 38 21
-1.1839033 0.32125759 4.4459791 50 44 24
0.0725528 2.1829197 4.7457299 54 49 28
-0.14650291 2.4741206 5.0511208 22 18 7
-0.14818117 2.4632628 5.0369315 25 21 9
-1.3052793 1.2074553 5.0416274 56 51 31
-1.1380699 0.27133501 4.3807507 39 35 19
-0.56361866 2.5121682 5.3337417 27 22 9
-0.049382627 1.1338593 4.2123728 51 46 27
-1.1507642 0.26645851 4.3925681 44 39 22
-0.57559603 2.5090468 5.3388367 29 24 11
-1.3079758 1.1802679 5.0225658 56 51 30
-0.58748496 2.5121422 5.3594108 29 25 12
-1.0475199 2.0107071 5.3351121 43 37 20
-1.0599403 1.9943415 5.3420668 46 38 21
-0.21218425 2.5092635 5.1117172 29 25 13
0.0748806 2.1223118 4.7055488 65 60 38
-0.86798751 2.2863328 5.3905792 41 35 20
-1.3090196 1.1493682 5.0029268 45 40 22
-0.61974478 2.4897666 5.3524189 36 31 16
-1.2334434 0.67104322 4.6699319 54 44 23
-0.028744966 2.3555539 4.8978395 36 30 16
-1.1331389 0.25784636 4.3728576 40 36 21
-0.66473359 2.4715786 5.3767014 34 28 13
-0.88946629 2.2586832 5.3861365 36 31 18
-0.12639216 1.1935105 4.2922401 41 37 21
-1.1665483 0.28931272 4.4085622 46 41 24
-1.0857964 1.9408287 5.3223581 46 39 22
-0.23334974 2.5191636 5.1333766 32 28 15
-1.3166075 1.0631419 4.9655457 57 52 31
-0.040103227 2.3944914 4.9446087 33 29 15
-1.0971489 1.9029756 5.2937937 46 38 21
-0.9121474 2.2263923 5.3826418 39 33 18
-1.3132379 1.054594 4.9472909 56 51 31
-0.11883453 1.1846508 4.283833 41 36 22
0.0593009 2.070961 4.6753354 61 56 35
-1.2218356 0.58385378 4.6164155 62 54 32
-0.91710156 2.2132308 5.3741822 39 33 18
-1.0997648 0.20615518 4.324821 33 30 18
-1.1196301 1.8802391 5.3179712 47 40 23
-1.3042438 0.99704736 4.9036021 54 49 29
-0.10417947 1.2870965 4.3260255 37 33 18
-1.1212826 1.8607287 5.2960005 47 39 22
-0.025108397 2.3383722 4.8781033 41 36 20
-0.93102038 2.1858406 5.3686123 38 33 19
-1.1308045 1.8484054 5.3050337 44 37 20
-0.94290042 2.1681604 5.3669043 37 32 18
-0.96058118 2.1455548 5.3637357 41 34 20
-0.044400811 1.072643 4.1684203 55 50 29
-0.10294387 1.6287744 4.5229902 67 60 34
-1.2220131 1.5759506 5.1924233 52 44 25
0.035409749 2.2857027 4.8306179 43 38 20
-0.09787491 2.4322329 4.9903965 26 21 10
-0.7555474 2.4214807 5.3989143 44 37 21
-1.2926136 0.91248578 4.8536372 43 37 20
-0.13533857 2.4542389 5.0237994 23 18 9
-0.23027164 0.23412573 3.8069384 47 42 24
-0.34550264 2.5393243 5.2094598 25 22 11
-0.090152472 1.554587 4.4865694 43 38 21
-1.2755704 0.84755927 4.8021412 52 43 22
-1.2157679 0.49515498 4.5635824 50 42 22
-1.2770905 0.83266771 4.8010106 53 44 23
-0.37058949 2.544806 5.2383628 25 21 10
-1.2608827 1.4579372 5.1484962 54 47 28
-0.41000465 2.5403419 5.2537041 25 21 10
-0.43092561 2.5404382 5.2655945 29 24 11
-0.45568168 2.5327802 5.2782683 30 26 13
-0.46900105 2.5240145 5.2766876 31 26 13
-1.2150892 0.46343291 4.5472889 53 44 22
-0.020177662 0.96326947 4.099596 60 55 32
-0.085343629 1.2461121 4.3033676 38 35 21
-0.10554466 1.225698 4.3038168 35 32 19
-0.07980147 1.470925 4.4311657 62 57 35
-1.2202544 0.44112492 4.542665 56 46 24
-0.99093431 2.1242185 5.3797455 42 35 19
-0.10176465 1.2057059 4.2899942 39 36 22
-1.2080581 0.42887163 4.5206971 52 44 23
-1.3045557 1.2515001 5.0661125 58 51 31
-1.2759483 0.77937025 4.7771873 54 45 24
-0.035776496 2.374136 4.9202251 38 33 19
0.071390629 2.1603835 4.7264357 58 53 31
-0.84465182 2.3362861 5.4131832 46 40 22
-0.11662948 1.2307596 4.3110433 35 32 19
-1.072262 1.9690249 5.3317719 50 42 25
-0.093359292 1.3538259 4.3655834 34 31 17
-1.0963044 1.9221923 5.3262162 46 39 22
-0.33224288 2.5454004 5.2128263 26 22 11
-0.64176983 2.4871116 5.3726625 33 28 13
-0.075279146 1.1606593 4.2384324 43 39 23
-0.39532498 2.5509582 5.2609382 25 22 11
-1.2105244 0.39065731 4.5043988 55 46 25
-0.94925642 2.1679215 5.377234 35 29 16
-0.094875485 1.1846724 4.269433 38 34 20
-0.11465517 1.203367 4.294611 37 34 21
-0.11469901 1.1758711 4.2748642 40 36 21
-0.01935488 1.015861 4.1302385 64 58 33
-0.026135653 1.0987856 4.1844988 57 51 29
-0.04572019 1.0373218 4.1452446 59 54 30
-0.53491479 2.5065675 5.3014336 28 23 10
-0.11686409 1.5097089 4.4564252 53 48 29
-0.55174875 2.5014913 5.306695 28 23 11
-0.57297152 2.4984686 5.3162951 30 25 12
-0.58750796 2.492903 5.3200765 32 27 13
-1.2833309 0.9085936 4.8329344 50 41 22
-0.60201919 2.4936538 5.3393793 30 25 12
-0.75240874 2.4153306 5.3858562 43 36 20
-0.097302765 1.461428 4.4245272 63 58 35
-0.098120183 1.1436728 4.2350082 40 36 22
-1.277003 1.3801601 5.1067801 56 49 30
0.0529719 2.1976681 4.7484431 56 50 28
-1.2656256 0.81110328 4.7727256 52 43 22
-1.1464972 1.7903388 5.2587843 59 51 29
-1.2826819 1.3551687 5.0993519 64 56 35
-0.23383281 2.5059583 5.1134882 30 27 15
-0.6397869 2.4740195 5.3501477 35 30 15
-0.65496135 2.4600909 5.3449373 37 32 16
-0.059958518 1.8624018 4.6316533 68 59 32
-0.98494673 2.1188605 5.3633366 42 35 19
-1.2648826 0.79162246 4.7625332 56 47 26
-0.10271803 1.4188623 4.4008894 58 53 34
-1.1824296 0.42272782 4.4923558 49 40 21
-0.10185227 0.76036704 4.0160184 59 54 31
-0.67220664 2.4600644 5.3655787 36 30 16
-1.28146 0.86815649 4.8162241 42 35 18
-0.9949683 2.1049762 5.3595743 40 34 19
-0.81390125 2.3553133 5.3890114 46 39 22
-0.24516439 0.2694509 3.8218417 55 50 27
-1.1651032 1.7312604 5.239296 55 48 27
-0.33195013 2.5334845 5.1917348 25 21 11
-0.83457589 2.3267169 5.3855782 45 39 22
-0.91201258 -0.19637132 3.956228 29 26 15
-0.26803714 0.2506938 3.8173587 52 47 27
-1.1745834 0.30112398 4.423192 40 34 19
-0.097035736 1.3674736 4.3741889 36 32 18
-1.3052412 1.2418709 5.0590115 56 50 30
-0.10048953 1.3116869 4.3376245 41 37 21
-1.1747158 1.7071764 5.2370696 53 45 26
-0.71986204 2.4373703 5.3776069 38 32 17
-1.1137671 0.23652065 4.342783 34 31 17
0.057180762 2.0242124 4.6500592 70 64 39
-0.84894431 2.295032 5.3721619 39 34 19
-1.0195047 2.0608015 5.3470716 44 38 21
-0.11590582 1.3460984 4.3637557 38 34 20
-1.2541502 0.76014197 4.7332692 57 48 26
-1.0471255 0.16406703 4.2536988 58 53 31
0.054093659 2.0073581 4.6433411 72 65 39
-0.1426048 1.2477965 4.3259749 38 34 20
-1.2195789 0.53416133 4.584816 64 56 33
-0.36761332 2.5268428 5.2058773 25 21 10
-0.88042063 2.2596498 5.3706584 38 33 19
-1.2483197 0.70447433 4.7051029 52 43 22
-0.068557501 1.0749962 4.1735401 48 42 24
-1.2011081 1.6394981 5.215281 54 46 26
-0.3886981 2.5282788 5.2211328 28 24 12
-0.89026403 2.241631 5.3623023 35 30 16
0.028473616 2.2652535 4.8081594 45 40 22
